ply
format ascii 1.0
comment PCL generated
element vertex 544
property float x
property float y
property float z
element camera 1
property float view_px
property float view_py
property float view_pz
property float x_axisx
property float x_axisy
property float x_axisz
property float y_axisx
property float y_axisy
property float y_axisz
property float z_axisx
property float z_axisy
property float z_axisz
property float focal
property float scalex
property float scaley
property float centerx
property float centery
property int viewportx
property int viewporty
property float k1
property float k2
end_header
0.069818549 -0.088351905 0.13136606
0.070448309 -0.088351905 0.13136606
0.07105162 -0.088430643 0.13142878
0.068533532 -0.088875771 0.13098364
0.069163054 -0.088875771 0.13098364
0.069818549 -0.088797212 0.13092075
0.070395909 -0.0889543 0.13104652
0.071025193 -0.0889543 0.13104652
0.071627811 -0.089032859 0.1311094
0.072229974 -0.089111388 0.13117227
0.067878753 -0.089399278 0.13060154
0.068508044 -0.089399278 0.13060154
0.069163054 -0.089320913 0.13053851
0.069792576 -0.089320913 0.13053851
0.070395909 -0.089399278 0.13060154
0.070998751 -0.089477658 0.13066459
0.071601145 -0.089556038 0.13072763
0.072203062 -0.089634418 0.13079068
0.072777376 -0.089791179 0.13091677
0.073405497 -0.089791179 0.13091677
0.067224428 -0.089922473 0.13021979
0.067853481 -0.089922473 0.13021979
0.068482541 -0.089922473 0.13021979
0.069111593 -0.089922473 0.13021979
0.069740646 -0.089922473 0.13021979
0.070369706 -0.089922473 0.13021979
0.070972323 -0.090000674 0.130283
0.071574479 -0.090078905 0.13034621
0.072176166 -0.090157107 0.13040942
0.072777376 -0.090235338 0.13047263
0.073350765 -0.090391725 0.13059902
0.073923208 -0.090548158 0.13072546
0.066545784 -0.090523377 0.12990174
0.067199402 -0.090445325 0.12983835
0.067777701 -0.090601414 0.1299651
0.068457045 -0.090445325 0.12983835
0.069085866 -0.090445325 0.12983835
0.069714688 -0.090445325 0.12983835
0.070343509 -0.090445325 0.12983835
0.070945889 -0.090523377 0.12990174
0.071521141 -0.090679482 0.13002849
0.072149262 -0.090679482 0.13002849
0.072723113 -0.090835541 0.13015521
0.073323391 -0.090913609 0.1302186
0.073895596 -0.091069698 0.13034534
0.07452254 -0.091069698 0.13034534
0.066520996 -0.091045737 0.12952079
0.067149349 -0.091045737 0.12952079
0.067777701 -0.091045737 0.12952079
0.068406053 -0.091045737 0.12952079
0.069060132 -0.090967864 0.12945725
0.069688715 -0.090967864 0.12945725
0.070317306 -0.090967864 0.12945725
0.070893019 -0.091123626 0.12958434
0.071521141 -0.091123626 0.12958434
0.072122365 -0.091201499 0.12964788
0.072695971 -0.091357261 0.12977494
0.073296025 -0.091435134 0.12983848
0.073923208 -0.091435134 0.12983848
0.07452254 -0.091513023 0.12990203
0.066471405 -0.091645479 0.1292039
0.067124315 -0.09156777 0.1291402
0.067752436 -0.09156777 0.1291402
0.068380557 -0.09156777 0.1291402
0.069008671 -0.09156777 0.1291402
0.069636784 -0.09156777 0.1291402
0.070264906 -0.09156777 0.1291402
0.070893019 -0.09156777 0.1291402
0.071494475 -0.091645479 0.1292039
0.072095469 -0.091723174 0.12926759
0.072695971 -0.091800898 0.12933129
0.073296025 -0.091878608 0.12939501
0.073923208 -0.091878608 0.12939501
0.074494705 -0.092034042 0.12952241
0.066471405 -0.092089459 0.12875992
0.067099288 -0.092089459 0.12875992
0.067727178 -0.092089459 0.12875992
0.068380557 -0.092011914 0.12869605
0.068982944 -0.092089459 0.12875992
0.069636784 -0.092011914 0.12869605
0.070264906 -0.092011914 0.12869605
0.070893019 -0.092011914 0.12869605
0.071494475 -0.092089459 0.12875992
0.072095469 -0.09216699 0.12882377
0.072695971 -0.092244551 0.12888765
0.073296025 -0.092322096 0.12895152
0.073895596 -0.092399657 0.1290154
0.07452254 -0.092399657 0.1290154
0.067099288 -0.092533439 0.12831593
0.067727178 -0.092533439 0.12831593
0.068380557 -0.092456073 0.1282519
0.069034405 -0.092378676 0.12818785
0.069636784 -0.092456073 0.1282519
0.070264906 -0.092456073 0.1282519
0.070893019 -0.092456073 0.1282519
0.071521141 -0.092456073 0.1282519
0.072122365 -0.092533439 0.12831593
0.072695971 -0.092688203 0.128444
0.073296025 -0.092765585 0.12850803
0.073923208 -0.092765585 0.12850803
0.07452254 -0.092842981 0.12857208
0.067074262 -0.093054622 0.12793614
0.067727178 -0.092977419 0.12787196
0.068380557 -0.092900217 0.12780775
0.069034405 -0.092822984 0.12774354
0.069662757 -0.092822984 0.12774354
0.070291109 -0.092822984 0.12774354
0.070972323 -0.092668533 0.12761512
0.071601145 -0.092668533 0.12761512
0.072149262 -0.092900217 0.12780775
0.072750241 -0.092977419 0.12787196
0.073350765 -0.093054622 0.12793614
0.073923208 -0.093209058 0.12806454
0.067727178 -0.0934214 0.12742797
0.068406053 -0.093267292 0.12729923
0.069060132 -0.093190253 0.12723486
0.069662757 -0.093267292 0.12729923
0.070291109 -0.093267292 0.12729923
0.070972323 -0.093113184 0.12717049
0.071601145 -0.093113184 0.12717049
0.072203062 -0.093190253 0.12723486
0.072777376 -0.093344361 0.12736361
0.073323391 -0.093575507 0.1275567
0.073923208 -0.093652546 0.12762107
0.06790401 -0.09332718 0.12653224
0.068533532 -0.09332718 0.12653224
0.069188789 -0.093250275 0.12646769
0.069844507 -0.0931734 0.12640318
0.070526898 -0.09301962 0.12627411
0.071104489 -0.0931734 0.12640318
0.071707815 -0.093250275 0.12646769
0.072310671 -0.09332718 0.12653224
0.072858788 -0.093557835 0.12672584
0.073405497 -0.093788505 0.12691946
0.069497548 -0.092774928 0.125246
0.070052229 -0.093005091 0.12544011
0.070684098 -0.093005091 0.12544011
0.071315952 -0.093005091 0.12544011
0.072001152 -0.092851654 0.12531072
0.072606586 -0.09292838 0.1253754
0.069349408 -0.091767669 0.12356628
0.07008934 -0.091461435 0.12330681
0.070545547 -0.091997325 0.12376086
0.071181864 -0.091997325 0.12376086
0.071950339 -0.091614544 0.12343656
0.072614498 -0.091537982 0.12337168
0.073037006 -0.092150435 0.12389061
0.071679637 -0.090995863 0.12207535
0.071220621 -0.090915382 0.12116589
0.071941629 -0.090686694 0.12097028
0.072584733 -0.090686694 0.12097028
0.073227838 -0.090686694 0.12097028
0.070758335 -0.090837181 0.12025408
0.071402378 -0.090837181 0.12025408
0.072072625 -0.09076114 0.12018874
0.072716892 -0.09076114 0.12018874
0.073361173 -0.09076114 0.12018874
0.074032351 -0.090685084 0.12012337
0.068702824 -0.089698836 0.1184226
0.069076478 -0.090533674 0.11914341
0.069647081 -0.090761334 0.11933997
0.070292771 -0.090761334 0.11933997
0.070912711 -0.09083724 0.11940552
0.071558163 -0.09083724 0.11940552
0.072151214 -0.090989038 0.11953658
0.072849058 -0.09083724 0.11940552
0.073494509 -0.09083724 0.11940552
0.074166864 -0.090761334 0.11933997
0.069351785 -0.090157717 0.11796372
0.069874443 -0.090536371 0.11829217
0.070445739 -0.090763554 0.11848927
0.071067095 -0.090839282 0.11855495
0.071687981 -0.090915009 0.11862066
0.072334602 -0.090915009 0.11862066
0.072954789 -0.090990737 0.11868635
0.073601179 -0.090990737 0.11868635
0.074247569 -0.090990737 0.11868635
0.068013035 -0.088727564 0.11585835
0.068520486 -0.089180931 0.11625353
0.069099523 -0.089407608 0.11645108
0.069526978 -0.090087667 0.11704382
0.070051275 -0.090465471 0.11737311
0.07062421 -0.090692177 0.1175707
0.071247205 -0.090767741 0.11763655
0.071843773 -0.090918869 0.11776827
0.072465606 -0.090994418 0.11783411
0.073113389 -0.090994418 0.11783411
0.07376118 -0.090994418 0.11783411
0.074408978 -0.090994418 0.11783411
0.067478664 -0.088813588 0.11506522
0.06806168 -0.089039788 0.11526328
0.06861873 -0.089341372 0.11552738
0.069149107 -0.089718357 0.1158575
0.069677144 -0.090095326 0.11618762
0.070228107 -0.090396911 0.11645171
0.070802689 -0.090623111 0.11664979
0.071401589 -0.09077391 0.11678185
0.071973592 -0.09100011 0.11697993
0.072622791 -0.09100011 0.11697993
0.073219113 -0.091150895 0.11711198
0.073867843 -0.091150895 0.11711198
0.074516572 -0.091150895 0.11711198
0.067526847 -0.089126989 0.11446898
0.068134658 -0.089277446 0.11460136
0.068692401 -0.08957839 0.11486612
0.069223486 -0.089954525 0.11519708
0.06977725 -0.090255469 0.11546184
0.070354417 -0.090481147 0.1156604
0.070930168 -0.09070684 0.11585897
0.071530238 -0.090857297 0.11599134
0.072155342 -0.090932548 0.11605754
0.072753794 -0.09108299 0.11618991
0.073377714 -0.091158226 0.11625612
0.074027851 -0.091158226 0.11625612
0.074651085 -0.091233462 0.11632229
0.075246707 -0.091383904 0.11645468
0.067599118 -0.089365974 0.11380574
0.068207629 -0.089516118 0.11393845
0.068766087 -0.089816362 0.11420386
0.069322661 -0.090116635 0.11446927
0.069902398 -0.090341821 0.11466834
0.070480719 -0.090567023 0.11486742
0.071083143 -0.090717167 0.11500014
0.071684629 -0.090867266 0.11513284
0.072285175 -0.09101741 0.11526555
0.072858579 -0.091242626 0.11546463
0.07345701 -0.091392756 0.11559734
0.074081182 -0.091467813 0.11566368
0.07473179 -0.091467813 0.11566368
0.066450164 -0.089306369 0.1128754
0.067061253 -0.089456141 0.11300842
0.067671396 -0.089605942 0.11314148
0.068256281 -0.089830667 0.11334105
0.068864316 -0.089980468 0.1134741
0.069446631 -0.090205148 0.11367366
0.07002753 -0.090429857 0.11387321
0.070632294 -0.090579659 0.11400625
0.071236119 -0.090729445 0.1141393
0.071787544 -0.091029063 0.11440539
0.072389022 -0.091178864 0.11453845
0.073015779 -0.091253743 0.11460495
0.073615611 -0.091403559 0.11473799
0.074267857 -0.091403559 0.11473799
0.066544652 -0.089473262 0.1121428
0.067108959 -0.08977221 0.11240956
0.067767754 -0.08977221 0.11240956
0.068377912 -0.089921653 0.11254291
0.068962559 -0.090145871 0.11274299
0.069521002 -0.090444818 0.11300975
0.07015267 -0.090519547 0.11307642
0.070758604 -0.090669006 0.1132098
0.071389101 -0.090743735 0.11327648
0.071941927 -0.091042683 0.11354323
0.072570786 -0.091117397 0.11360991
0.073172972 -0.09126687 0.11374329
0.073747776 -0.091491088 0.11394337
0.074401192 -0.091491088 0.11394337
0.066591896 -0.089790627 0.11154261
0.06722825 -0.089865178 0.11160944
0.067840032 -0.090014324 0.11174315
0.068426557 -0.09023805 0.11194372
0.069060795 -0.090312615 0.11201057
0.06964498 -0.090536296 0.11221112
0.07027781 -0.090610877 0.11227798
0.070884913 -0.090760022 0.11241169
0.071491078 -0.090909168 0.1125454
0.072096311 -0.091058284 0.11267908
0.072700605 -0.09120743 0.11281279
0.07330396 -0.091356561 0.11294651
0.073906377 -0.091505706 0.1130802
0.066639148 -0.090108648 0.11094174
0.067275964 -0.090183049 0.11100873
0.067888215 -0.090331852 0.11114277
0.068548188 -0.090331852 0.11114277
0.069159031 -0.090480655 0.11127682
0.069744147 -0.09070389 0.11147788
0.070402943 -0.09070389 0.11147788
0.07101123 -0.090852663 0.1116119
0.07164406 -0.090927079 0.11167893
0.072250687 -0.091075897 0.11181296
0.072856389 -0.0912247 0.11194701
0.073461153 -0.091373518 0.11208105
0.066686392 -0.090427339 0.11034019
0.067347527 -0.090427339 0.11034019
0.067960486 -0.090575814 0.11047457
0.06859684 -0.090650052 0.11054173
0.06923271 -0.090724304 0.11060894
0.069868118 -0.090798512 0.11067611
0.07052809 -0.090798512 0.11067611
0.071137533 -0.090947002 0.11081047
0.071720548 -0.09116973 0.11101204
0.072353609 -0.091243953 0.11107922
0.072960243 -0.091392428 0.11121358
0.073618345 -0.091392428 0.11121358
0.074223571 -0.091540903 0.11134796
0.06678088 -0.090598539 0.10960329
0.067442961 -0.090598539 0.10960329
0.068080939 -0.090672627 0.10967065
0.068718463 -0.090746686 0.10973799
0.069355503 -0.09082076 0.10980535
0.069992088 -0.090894833 0.1098727
0.070653223 -0.090894833 0.1098727
0.07121332 -0.091191128 0.11014211
0.071873523 -0.091191128 0.11014211
0.072482258 -0.091339275 0.11027679
0.073116034 -0.091413334 0.11034414
0.073723137 -0.091561481 0.11047885
0.067586094 -0.090623289 0.10873005
0.068225488 -0.090697169 0.10879757
0.068888739 -0.090697169 0.10879757
0.069527417 -0.090771094 0.10886508
0.070165642 -0.090844989 0.1089326
0.070828415 -0.090844989 0.1089326
0.071415417 -0.091066688 0.10913514
0.072026506 -0.091214508 0.10927017
0.072662368 -0.091288432 0.10933769
0.073323749 -0.091288432 0.10933769
0.073958926 -0.091362327 0.1094052
0.068370037 -0.090723708 0.10792249
0.069034688 -0.090723708 0.10792249
0.069723897 -0.090649977 0.10785481
0.070339195 -0.090797469 0.10799018
0.071003608 -0.090797469 0.10799018
0.071592249 -0.091018677 0.1081932
0.072230466 -0.091092438 0.1082609
0.072868221 -0.091166154 0.10832858
0.073479541 -0.091313645 0.10846394
0.068538666 -0.090678662 0.10697758
0.069204964 -0.090678662 0.10697758
0.069871254 -0.090678662 0.10697758
0.070512749 -0.090752259 0.10704544
0.071153782 -0.090825826 0.10711327
0.071769081 -0.09097296 0.10724898
0.072383448 -0.091120124 0.10738467
0.073048331 -0.091120124 0.10738467
0.073687255 -0.091193691 0.10745251
0.067395061 -0.090562537 0.10596237
0.068039373 -0.09063594 0.10603037
0.068683207 -0.090709358 0.1060984
0.069350913 -0.090709358 0.1060984
0.070018604 -0.090709358 0.1060984
0.070661515 -0.090782762 0.10616638
0.071328975 -0.090782762 0.10616638
0.071945913 -0.090929583 0.10630241
0.072587416 -0.091002986 0.10637042
0.073228441 -0.091076404 0.10643844
0.067536801 -0.090595543 0.10508083
0.068182513 -0.090668797 0.10514902
0.068827756 -0.090742037 0.10521717
0.069496863 -0.090742037 0.10521717
0.070190519 -0.090668797 0.10514902
0.070859857 -0.090668797 0.10514902
0.071504168 -0.090742037 0.10521717
0.07214801 -0.090815261 0.10528535
0.072765894 -0.090961754 0.10542171
0.073408552 -0.091035008 0.10548989
0.074050762 -0.091108248 0.10555807
0.06834951 -0.090630502 0.10419729
0.069020487 -0.090630502 0.10419729
0.069691464 -0.090630502 0.10419729
0.070362441 -0.090630502 0.10419729
0.071033418 -0.090630502 0.10419729
0.071704395 -0.090630502 0.10419729
0.072350107 -0.090703592 0.10426566
0.073020846 -0.090703592 0.10426566
0.073640123 -0.090849757 0.10440235
0.0743104 -0.090849757 0.10440235
0.068516508 -0.090594575 0.10324329
0.069189124 -0.090594575 0.10324329
0.06986174 -0.090594575 0.10324329
0.070534356 -0.090594575 0.10324329
0.071206972 -0.090594575 0.10324329
0.071879588 -0.090594575 0.10324329
0.072552204 -0.090594575 0.10324329
0.073199324 -0.090667501 0.10331181
0.073871695 -0.090667501 0.10331181
0.068707362 -0.090488225 0.1022183
0.069381848 -0.090488225 0.1022183
0.070007689 -0.09063372 0.10235564
0.070730828 -0.090488225 0.1022183
0.071405314 -0.090488225 0.1022183
0.0720798 -0.090488225 0.1022183
0.072754294 -0.090488225 0.1022183
0.073428787 -0.090488225 0.1022183
0.074051805 -0.09063372 0.10235564
0.068874359 -0.090457097 0.10125948
0.069550484 -0.090457097 0.10125948
0.070226617 -0.090457097 0.10125948
0.070878185 -0.090529665 0.10132831
0.07155408 -0.090529665 0.10132831
0.072254993 -0.090457097 0.10125948
0.072905868 -0.090529665 0.10132831
0.073581763 -0.090529665 0.10132831
0.074231923 -0.090602249 0.10139717
0.069041356 -0.090428278 0.10029835
0.069719121 -0.090428278 0.10029835
0.070372567 -0.090500683 0.10036735
0.0710501 -0.090500683 0.10036735
0.071702838 -0.090573102 0.10043637
0.072380133 -0.090573102 0.10043637
0.073032178 -0.090645522 0.10050537
0.073709242 -0.090645522 0.10050537
0.074386306 -0.090645522 0.10050537
0.069232211 -0.090329513 0.099265724
0.06986367 -0.090474024 0.099404067
0.070518523 -0.090546265 0.099473238
0.071197458 -0.090546265 0.099473238
0.071851596 -0.090618521 0.099542424
0.072480246 -0.090763032 0.099680766
0.073158488 -0.090763032 0.099680766
0.073836721 -0.090763032 0.099680766
0.074514955 -0.090763032 0.099680766
0.069303781 -0.09059386 0.098577142
0.069984123 -0.09059386 0.098577142
0.070640147 -0.090665936 0.098646462
0.071320251 -0.090665936 0.098646462
0.071901187 -0.090954274 0.098923817
0.07258036 -0.090954274 0.098923817
0.073310055 -0.09081009 0.098785147
0.073938712 -0.090954274 0.098923817
0.074617878 -0.090954274 0.098923817
0.068788789 -0.090571493 0.097609565
0.069470771 -0.090571493 0.097609565
0.07015276 -0.090571493 0.097609565
0.070786089 -0.090715349 0.097748548
0.071443051 -0.090787247 0.097818047
0.072074741 -0.090931088 0.09795706
0.072755553 -0.090931088 0.09795706
0.073436365 -0.090931088 0.09795706
0.074066184 -0.091074929 0.098096073
0.074797988 -0.090931088 0.09795706
0.068293914 -0.090479702 0.096569955
0.068930529 -0.0906232 0.096709296
0.069590062 -0.090694949 0.096778959
0.070297301 -0.0906232 0.096709296
0.070883393 -0.090910226 0.096987978
0.071565844 -0.090910226 0.096987978
0.072223507 -0.090981975 0.097057641
0.072880685 -0.091053739 0.097127318
0.073562674 -0.091053739 0.097127318
0.074193664 -0.091197252 0.097266644
0.074926637 -0.091053739 0.097127318
0.068410859 -0.090605319 0.095737234
0.069072269 -0.090676889 0.095807076
0.069757059 -0.090676889 0.095807076
0.070417754 -0.090748489 0.095876917
0.071029343 -0.090963259 0.096086398
0.071688637 -0.091034859 0.096156254
0.07234747 -0.09110643 0.096226066
0.073030859 -0.09110643 0.096226066
0.073714249 -0.09110643 0.096226066
0.074397638 -0.09110643 0.096226066
0.067911066 -0.090518311 0.094692856
0.068527795 -0.090732604 0.094902858
0.069261245 -0.090589747 0.094762862
0.069900192 -0.090732604 0.094902858
0.070562303 -0.090804011 0.094972864
0.0711753 -0.091018274 0.095182836
0.071811438 -0.091161117 0.095322847
0.072496235 -0.091161117 0.095322847
0.073181026 -0.091161117 0.095322847
0.073840559 -0.091232553 0.095392853
0.074525118 -0.091232553 0.095392853
0.068003677 -0.090719014 0.093926504
0.06864474 -0.090861514 0.094066799
0.069332115 -0.090861514 0.094066799
0.069995627 -0.090932786 0.094136983
0.070658669 -0.091004029 0.094207138
0.071321249 -0.091075301 0.094277307
0.071934238 -0.091289058 0.094487816
0.072620198 -0.091289058 0.094487816
0.073306166 -0.091289058 0.094487816
0.073966861 -0.091360331 0.094557986
0.068073146 -0.090992108 0.093229115
0.068761684 -0.090992108 0.093229115
0.069450229 -0.090992108 0.093229115
0.070186481 -0.090849921 0.093088448
0.070827305 -0.090992108 0.093229115
0.071467198 -0.091134295 0.093369782
0.072081596 -0.091347545 0.093580768
0.072768964 -0.091347545 0.093580768
0.073456332 -0.091347545 0.093580768
0.074118435 -0.091418669 0.093651101
0.068235219 -0.090982497 0.092248783
0.068948783 -0.090911582 0.092178285
0.069662832 -0.090840638 0.092107788
0.070353478 -0.090840638 0.092107788
0.071020029 -0.090911582 0.092178285
0.071686126 -0.090982497 0.092248783
0.072278067 -0.091266215 0.092530772
0.072967306 -0.091266215 0.092530772
0.073631525 -0.091337115 0.092601255
0.07427001 -0.091478974 0.092742249
0.068397298 -0.09097521 0.091266125
0.069135897 -0.090833694 0.091124788
0.06982819 -0.090833694 0.091124788
0.070520476 -0.090833694 0.091124788
0.071212761 -0.090833694 0.091124788
0.071832076 -0.091045976 0.091336772
0.072499096 -0.091116741 0.091407448
0.07314086 -0.091258273 0.091548771
0.073806718 -0.091329008 0.091619417
0.068513073 -0.091111436 0.090422809
0.069252834 -0.090970248 0.090281144
0.069969922 -0.090899646 0.090210304
0.070663616 -0.090899646 0.090210304
0.07135731 -0.090899646 0.090210304
0.072026677 -0.090970248 0.090281144
0.072671011 -0.091111436 0.090422809
0.073339209 -0.091182038 0.090493605
0.074006937 -0.09125264 0.090564445
0.069393165 -0.091038018 0.089364842
0.070111655 -0.090967596 0.089293852
0.070806749 -0.090967596 0.089293852
0.071501851 -0.090967596 0.089293852
0.072172627 -0.091038018 0.089364842
0.072842926 -0.091108456 0.089435846
0.073512763 -0.091178879 0.089506805
0.074157104 -0.09131974 0.089648798
0.069486715 -0.091248333 0.088588864
0.070300639 -0.090896994 0.088233069
0.071069174 -0.090686202 0.088019595
0.07171867 -0.090826735 0.088161916
0.072391555 -0.090896994 0.088233069
0.073088527 -0.090896994 0.088233069
0.073760696 -0.090967268 0.088304237
0.069790766 -0.090829059 0.087169647
0.070584103 -0.090548664 0.08688435
0.071283884 -0.090548664 0.08688435
0.071983665 -0.090548664 0.08688435
0.072683454 -0.090548664 0.08688435
0.073383234 -0.090548664 0.08688435
0.070891201 -0.090134367 0.085460156
0.071522452 -0.090344176 0.085674644
0.072200485 -0.090414107 0.085746124
0.072878055 -0.090484008 0.085817605
0.073530592 -0.090623885 0.085960582
0.071174666 -0.089794159 0.084103331
0.071784876 -0.090073213 0.084389955
0.072417304 -0.090282515 0.084604919
0.073096983 -0.090352282 0.084676549
0.072899126 -0.089388296 0.082670689
0.073559158 -0.089527503 0.082814336
0.074193694 -0.089736298 0.083029792
0 0 0 1 0 0 0 1 0 0 0 1 0 0 0 0 0 544 1 0 0
