ply
format ascii 1.0
comment PCL generated
element vertex 490
property float x
property float y
property float z
element camera 1
property float view_px
property float view_py
property float view_pz
property float x_axisx
property float x_axisy
property float x_axisz
property float y_axisx
property float y_axisy
property float y_axisz
property float z_axisx
property float z_axisy
property float z_axisz
property float focal
property float scalex
property float scaley
property float centerx
property float centery
property int viewportx
property int viewporty
property float k1
property float k2
end_header
0.069034405 -0.088824168 0.13174236
0.069662757 -0.088824168 0.13174236
0.070291109 -0.088824168 0.13174236
0.070893019 -0.088902891 0.13180508
0.067752436 -0.089347035 0.13136092
0.068380557 -0.089347035 0.13136092
0.069034405 -0.089268491 0.13129804
0.069662757 -0.089268491 0.13129804
0.070238717 -0.089425579 0.1314238
0.070893019 -0.089347035 0.13136092
0.071521141 -0.089347035 0.13136092
0.072122365 -0.089425579 0.1314238
0.067074262 -0.089947909 0.13104284
0.067752436 -0.089791179 0.13091677
0.068355061 -0.089869559 0.13097982
0.069008671 -0.089791179 0.13091677
0.069636784 -0.089791179 0.13091677
0.070264906 -0.089791179 0.13091677
0.070866592 -0.089869559 0.13097982
0.071467817 -0.089947909 0.13104284
0.072095469 -0.089947909 0.13104284
0.072723113 -0.089947909 0.13104284
0.066446617 -0.090391725 0.13059902
0.067074262 -0.090391725 0.13059902
0.067701921 -0.090391725 0.13059902
0.068329573 -0.090391725 0.13059902
0.068957217 -0.090391725 0.13059902
0.069584869 -0.090391725 0.13059902
0.070238717 -0.090313539 0.13053584
0.070866592 -0.090313539 0.13053584
0.071467817 -0.090391725 0.13059902
0.072095469 -0.090391725 0.13059902
0.072695971 -0.090469956 0.13066225
0.073323391 -0.090469956 0.13066225
0.066421822 -0.090913609 0.1302186
0.067049235 -0.090913609 0.1302186
0.067676648 -0.090913609 0.1302186
0.068304069 -0.090913609 0.1302186
0.068905748 -0.090991646 0.13028197
0.069558896 -0.090913609 0.1302186
0.070212521 -0.090835541 0.13015521
0.070813723 -0.090913609 0.1302186
0.071441144 -0.090913609 0.1302186
0.072041661 -0.090991646 0.13028197
0.072668836 -0.090991646 0.13028197
0.073296025 -0.090991646 0.13028197
0.073895596 -0.091069698 0.13034534
0.065745287 -0.091513023 0.12990203
0.066397026 -0.091435134 0.12983848
0.067024209 -0.091435134 0.12983848
0.067651391 -0.091435134 0.12983848
0.068278573 -0.091435134 0.12983848
0.068905748 -0.091435134 0.12983848
0.069532938 -0.091435134 0.12983848
0.070186317 -0.091357261 0.12977494
0.070787296 -0.091435134 0.12983848
0.071414478 -0.091435134 0.12983848
0.072041661 -0.091435134 0.12983848
0.072641701 -0.091513023 0.12990203
0.073268652 -0.091513023 0.12990203
0.073895596 -0.091513023 0.12990203
0.074494705 -0.091590896 0.12996557
0.06572073 -0.092034042 0.12952241
0.066372231 -0.091956347 0.12945871
0.066999175 -0.091956347 0.12945871
0.067626126 -0.091956347 0.12945871
0.068253078 -0.091956347 0.12945871
0.068880014 -0.091956347 0.12945871
0.069532938 -0.091878608 0.12939501
0.070160121 -0.091878608 0.12939501
0.070787296 -0.091878608 0.12939501
0.071441144 -0.091800898 0.12933129
0.072041661 -0.091878608 0.12939501
0.072668836 -0.091878608 0.12939501
0.073268652 -0.091956347 0.12945871
0.073923208 -0.091878608 0.12939501
0.07452254 -0.091956347 0.12945871
0.066347443 -0.092477202 0.12907927
0.066974156 -0.092477202 0.12907927
0.067626126 -0.092399657 0.1290154
0.068227582 -0.092477202 0.12907927
0.068854287 -0.092477202 0.12907927
0.069532938 -0.092322096 0.12895152
0.070160121 -0.092322096 0.12895152
0.070787296 -0.092322096 0.12895152
0.071414478 -0.092322096 0.12895152
0.072041661 -0.092322096 0.12895152
0.072668836 -0.092322096 0.12895152
0.073296025 -0.092322096 0.12895152
0.073923208 -0.092322096 0.12895152
0.07452254 -0.092399657 0.1290154
0.066347443 -0.092920363 0.12863611
0.066999175 -0.092842981 0.12857208
0.067600869 -0.092920363 0.12863611
0.068253078 -0.092842981 0.12857208
0.068880014 -0.092842981 0.12857208
0.069532938 -0.092765585 0.12850803
0.070186317 -0.092688203 0.128444
0.070813723 -0.092688203 0.128444
0.071441144 -0.092688203 0.128444
0.072068557 -0.092688203 0.128444
0.072668836 -0.092765585 0.12850803
0.073296025 -0.092765585 0.12850803
0.073923208 -0.092765585 0.12850803
0.07452254 -0.092842981 0.12857208
0.066974156 -0.093363509 0.12819296
0.067575604 -0.093440741 0.12825717
0.068227582 -0.093363509 0.12819296
0.068854287 -0.093363509 0.12819296
0.069506966 -0.093286291 0.12812877
0.070186317 -0.093131855 0.12800035
0.070813723 -0.093131855 0.12800035
0.071441144 -0.093131855 0.12800035
0.072095469 -0.093054622 0.12793614
0.072723113 -0.093054622 0.12793614
0.073350765 -0.093054622 0.12793614
0.073923208 -0.093209058 0.12806454
0.067575604 -0.093883723 0.12781419
0.068253078 -0.093729615 0.12768544
0.068880014 -0.093729615 0.12768544
0.069558896 -0.093575507 0.1275567
0.070160121 -0.093652546 0.12762107
0.070813723 -0.093575507 0.1275567
0.071574479 -0.093190253 0.12723486
0.072229974 -0.093113184 0.12717049
0.072777376 -0.093344361 0.12736361
0.073405497 -0.093344361 0.12736361
0.073978417 -0.093498439 0.12749232
0.067802958 -0.093634725 0.12679039
0.068482541 -0.093480945 0.12666132
0.069163054 -0.09332718 0.12653224
0.069818549 -0.093250275 0.12646769
0.070422105 -0.09332718 0.12653224
0.071104489 -0.0931734 0.12640318
0.071734481 -0.0931734 0.12640318
0.072283775 -0.093404055 0.12659676
0.072858788 -0.093557835 0.12672584
0.073460236 -0.093634725 0.12679039
0.074061222 -0.093711615 0.12685493
0.069343165 -0.093235269 0.12563421
0.069974326 -0.093235269 0.12563421
0.070631698 -0.093158528 0.12556949
0.07126309 -0.093158528 0.12556949
0.071867816 -0.093235269 0.12563421
0.072525889 -0.093158528 0.12556949
0.070519589 -0.092073873 0.12382573
0.070883088 -0.091454193 0.12246552
0.071496248 -0.091530591 0.12253056
0.070758335 -0.090837181 0.12025408
0.071402378 -0.090837181 0.12025408
0.072046429 -0.090837181 0.12025408
0.072690465 -0.090837181 0.12025408
0.073334508 -0.090837181 0.12025408
0.074005455 -0.09076114 0.12018874
0.069546036 -0.09106493 0.1196021
0.07019078 -0.09106493 0.1196021
0.070835523 -0.09106493 0.1196021
0.071480274 -0.09106493 0.1196021
0.072151214 -0.090989038 0.11953658
0.072769761 -0.09106493 0.1196021
0.07344117 -0.090989038 0.11953658
0.07413996 -0.09083724 0.11940552
0.069722869 -0.090990737 0.11868635
0.070369251 -0.090990737 0.11868635
0.07104136 -0.090915009 0.11862066
0.071687981 -0.090915009 0.11862066
0.072308414 -0.090990737 0.11868635
0.072954789 -0.090990737 0.11868635
0.073601179 -0.090990737 0.11868635
0.074247569 -0.090990737 0.11868635
0.069899701 -0.090918869 0.11776827
0.070573226 -0.09084329 0.11770241
0.071221478 -0.09084329 0.11770241
0.071843773 -0.090918869 0.11776827
0.072491802 -0.090918869 0.11776827
0.073139817 -0.090918869 0.11776827
0.073787846 -0.090918869 0.11776827
0.074408978 -0.090994418 0.11783411
0.070101798 -0.09077391 0.11678185
0.070751697 -0.09077391 0.11678185
0.071350127 -0.090924695 0.11691388
0.071999565 -0.090924695 0.11691388
0.072622791 -0.09100011 0.11697993
0.073245555 -0.091075495 0.11704594
0.073921181 -0.09100011 0.11697993
0.069602057 -0.090782076 0.11592516
0.070228107 -0.090857297 0.11599134
0.07085368 -0.090932548 0.11605754
0.071478777 -0.091007754 0.11612374
0.072129384 -0.091007754 0.11612374
0.072753794 -0.09108299 0.11618991
0.073377714 -0.091158226 0.11625612
0.074027851 -0.091158226 0.11625612
0.074677989 -0.091158226 0.11625612
0.06977725 -0.090717167 0.11500014
0.070404939 -0.090792209 0.11506648
0.071032159 -0.090867266 0.11513284
0.071633168 -0.09101741 0.11526555
0.072233245 -0.091167539 0.11539826
0.072858579 -0.091242626 0.11546463
0.073483452 -0.091317669 0.11553097
0.074134521 -0.091317669 0.11553097
0.074758686 -0.091392756 0.11559734
0.069902398 -0.090804338 0.11420581
0.070556514 -0.090804338 0.11420581
0.071134135 -0.091029063 0.11440539
0.071736082 -0.091178864 0.11453845
0.072363064 -0.091253743 0.11460495
0.072989583 -0.091328636 0.11467147
0.073615611 -0.091403559 0.11473799
0.074267857 -0.091403559 0.11473799
0.069446631 -0.090669006 0.1132098
0.070077591 -0.090743735 0.11327648
0.070657551 -0.090967953 0.11347656
0.071287118 -0.091042683 0.11354323
0.071890466 -0.091192141 0.11367661
0.072518855 -0.09126687 0.11374329
0.073146768 -0.091341615 0.11380999
0.073747776 -0.091491088 0.11394337
0.069545805 -0.090834588 0.11247854
0.070202723 -0.090834588 0.11247854
0.070834383 -0.090909168 0.1125454
0.071440093 -0.091058284 0.11267908
0.072044849 -0.09120743 0.11281279
0.072648674 -0.091356561 0.11294651
0.073277757 -0.091431141 0.11301337
0.074534528 -0.091580257 0.11314705
0.069060795 -0.090778291 0.11154489
0.069694564 -0.090852663 0.1116119
0.070327863 -0.090927079 0.11167893
0.070960701 -0.091001481 0.11174594
0.071542069 -0.0912247 0.11194701
0.072173499 -0.091299102 0.11201403
0.072804458 -0.091373518 0.11208105
0.073434956 -0.09144792 0.11214805
0.069183588 -0.090872765 0.1107433
0.069818534 -0.090947002 0.11081047
0.07047803 -0.090947002 0.11081047
0.07108701 -0.091095477 0.11094485
0.071695052 -0.091243953 0.11107922
0.072327882 -0.091318175 0.11114639
0.072960243 -0.091392428 0.11121358
0.073592149 -0.091466665 0.11128075
0.074223571 -0.091540903 0.11134796
0.069355503 -0.09082076 0.10980535
0.070016876 -0.09082076 0.10980535
0.070653223 -0.090894833 0.1098727
0.07121332 -0.091191128 0.11014211
0.071822532 -0.091339275 0.11027679
0.072482258 -0.091339275 0.11027679
0.073116034 -0.091413334 0.11034414
0.073723137 -0.091561481 0.11047885
0.068937384 -0.09054935 0.10866253
0.069576539 -0.090623289 0.10873005
0.070240021 -0.090623289 0.10873005
0.070828415 -0.090844989 0.1089326
0.071415417 -0.091066688 0.10913514
0.072026506 -0.091214508 0.10927017
0.072662368 -0.091288432 0.10933769
0.073219895 -0.091584057 0.10960773
0.069107659 -0.090502486 0.10771945
0.069773018 -0.090502486 0.10771945
0.070413575 -0.090576246 0.10778713
0.071003608 -0.090797469 0.10799018
0.071566984 -0.091092438 0.1082609
0.072230466 -0.091092438 0.1082609
0.072868221 -0.091166154 0.10832858
0.069350913 -0.09023723 0.10657053
0.069994047 -0.090310797 0.10663836
0.070611924 -0.090457946 0.10677405
0.071228862 -0.090605095 0.10690975
0.071769081 -0.09097296 0.10724898
0.072408937 -0.091046557 0.10731682
0.073048331 -0.091120124 0.10738467
0.07360936 -0.091414437 0.10765606
0.068875939 -0.090122074 0.10555428
0.069521189 -0.090195507 0.10562231
0.070165962 -0.09026891 0.1056903
0.070810273 -0.090342298 0.10575831
0.071404055 -0.090562537 0.10596237
0.071996436 -0.090782762 0.10616638
0.072587416 -0.091002986 0.10637042
0.073228441 -0.091076404 0.10643844
0.069044575 -0.090082839 0.10460359
0.069667138 -0.090229318 0.10473993
0.07031332 -0.090302557 0.10480811
0.070959032 -0.090375811 0.10487629
0.071579248 -0.090522304 0.10501266
0.072223797 -0.090595543 0.10508083
0.072893374 -0.090595543 0.10508083
0.073511474 -0.090742037 0.10521717
0.069237307 -0.089972809 0.1035822
0.069837414 -0.09019205 0.10378726
0.070485234 -0.090265125 0.10385559
0.071157381 -0.090265125 0.10385559
0.071779475 -0.090411291 0.10399228
0.072451152 -0.090411291 0.10399228
0.073122837 -0.090411291 0.10399228
0.073717318 -0.090630502 0.10419729
0.068707362 -0.090011299 0.10269523
0.069309577 -0.090230018 0.10290076
0.069983363 -0.090230018 0.10290076
0.070657149 -0.090230018 0.10290076
0.071306139 -0.090302944 0.10296927
0.071954668 -0.090375856 0.10303777
0.072627984 -0.090375856 0.10303777
0.073275812 -0.090448752 0.10310628
0.073897429 -0.090594575 0.10324329
0.068826646 -0.090124488 0.10187493
0.069454126 -0.090269968 0.10201228
0.07012932 -0.090269968 0.10201228
0.070804507 -0.090269968 0.10201228
0.071454905 -0.09034273 0.10208096
0.072129861 -0.09034273 0.10208096
0.072804816 -0.09034273 0.10208096
0.073454283 -0.090415463 0.10214961
0.074154727 -0.09034273 0.10208096
0.068922073 -0.09031193 0.10112181
0.06957458 -0.090384498 0.10119063
0.070275269 -0.09031193 0.10112181
0.070927307 -0.090384498 0.10119063
0.071578868 -0.090457097 0.10125948
0.072254993 -0.090457097 0.10125948
0.072931126 -0.090457097 0.10125948
0.073607258 -0.090457097 0.10125948
0.074283384 -0.090457097 0.10125948
0.067732595 -0.090283453 0.10016035
0.068363585 -0.090428278 0.10029835
0.069041356 -0.090428278 0.10029835
0.069719121 -0.090428278 0.10029835
0.070372567 -0.090500683 0.10036735
0.0710501 -0.090500683 0.10036735
0.071702838 -0.090573102 0.10043637
0.072380133 -0.090573102 0.10043637
0.073057435 -0.090573102 0.10043637
0.073734738 -0.090573102 0.10043637
0.074437767 -0.090500683 0.10036735
0.06777937 -0.090618521 0.099542424
0.06845808 -0.090618521 0.099542424
0.069136783 -0.090618521 0.099542424
0.069791399 -0.090690777 0.099611565
0.07049419 -0.090618521 0.099542424
0.071172893 -0.090618521 0.099542424
0.071802013 -0.090763032 0.099680766
0.07250528 -0.090690777 0.099611565
0.073183753 -0.090690777 0.099611565
0.073836721 -0.090763032 0.099680766
0.07454069 -0.090690777 0.099611565
0.067872927 -0.09081009 0.098785147
0.068505324 -0.090954274 0.098923817
0.069232211 -0.09081009 0.098785147
0.069911852 -0.09081009 0.098785147
0.070591494 -0.09081009 0.098785147
0.071271136 -0.09081009 0.098785147
0.071901187 -0.090954274 0.098923817
0.07258036 -0.090954274 0.098923817
0.073259532 -0.090954274 0.098923817
0.073938712 -0.090954274 0.098923817
0.074669339 -0.09081009 0.098785147
0.067989863 -0.090931088 0.09795706
0.068599813 -0.091146842 0.098165557
0.069351494 -0.090931088 0.09795706
0.070032306 -0.090931088 0.09795706
0.070664465 -0.091074929 0.098096073
0.071344808 -0.091074929 0.098096073
0.07202515 -0.091074929 0.098096073
0.072705492 -0.091074929 0.098096073
0.073385842 -0.091074929 0.098096073
0.074066184 -0.091074929 0.098096073
0.074797988 -0.090931088 0.09795706
0.068130195 -0.090981975 0.097057641
0.068812415 -0.090981975 0.097057641
0.069494635 -0.090981975 0.097057641
0.070176847 -0.090981975 0.097057641
0.070834741 -0.091053739 0.097127318
0.071516722 -0.091053739 0.097127318
0.072198704 -0.091053739 0.097127318
0.072830632 -0.091197252 0.097266644
0.073562674 -0.091053739 0.097127318
0.074193664 -0.091197252 0.097266644
0.074926637 -0.091053739 0.097127318
0.068270527 -0.091034859 0.096156254
0.068954147 -0.091034859 0.096156254
0.069661632 -0.090963259 0.096086398
0.070345484 -0.090963259 0.096086398
0.071005017 -0.091034859 0.096156254
0.07166408 -0.09110643 0.096226066
0.07234747 -0.09110643 0.096226066
0.073030859 -0.09110643 0.096226066
0.073688991 -0.091178015 0.096295893
0.067795292 -0.090875447 0.095042869
0.068434246 -0.091018274 0.095182836
0.069119513 -0.091018274 0.095182836
0.069804773 -0.091018274 0.095182836
0.070490032 -0.091018274 0.095182836
0.0711753 -0.091018274 0.095182836
0.071811438 -0.091161117 0.095322847
0.072496235 -0.091161117 0.095322847
0.073206052 -0.091089696 0.095252857
0.073865823 -0.091161117 0.095322847
0.074550621 -0.091161117 0.095322847
0.067957371 -0.090861514 0.094066799
0.068621352 -0.090932786 0.094136983
0.06930849 -0.090932786 0.094136983
0.069995627 -0.090932786 0.094136983
0.070658669 -0.091004029 0.094207138
0.071321249 -0.091075301 0.094277307
0.072007909 -0.091075301 0.094277307
0.072644986 -0.091217816 0.094417647
0.073331185 -0.091217816 0.094417647
0.074017391 -0.091217816 0.094417647
0.074703589 -0.091217816 0.094417647
0.068119451 -0.090849921 0.093088448
0.068761684 -0.090992108 0.093229115
0.069497474 -0.090849921 0.093088448
0.070138767 -0.090992108 0.093229115
0.070875488 -0.090849921 0.093088448
0.071515851 -0.090992108 0.093229115
0.072179824 -0.091063201 0.093299463
0.072843343 -0.091134295 0.093369782
0.073531412 -0.091134295 0.093369782
0.074194223 -0.091205388 0.09344013
0.068235219 -0.090982497 0.092248783
0.068948783 -0.090911582 0.092178285
0.069662832 -0.090840638 0.092107788
0.070353478 -0.090840638 0.092107788
0.071044125 -0.090840638 0.092107788
0.071710445 -0.090911582 0.092178285
0.072376303 -0.090982497 0.092248783
0.07306648 -0.090982497 0.092248783
0.073706605 -0.091124356 0.092389777
0.074371062 -0.091195285 0.092460245
0.06837415 -0.091045976 0.091336772
0.069089122 -0.09097521 0.091266125
0.06982819 -0.090833694 0.091124788
0.070520476 -0.090833694 0.091124788
0.071212761 -0.090833694 0.091124788
0.071905054 -0.090833694 0.091124788
0.072523661 -0.091045976 0.091336772
0.073215246 -0.091045976 0.091336772
0.073881797 -0.091116741 0.091407448
0.074522629 -0.091258273 0.091548771
0.068513073 -0.091111436 0.090422809
0.069252834 -0.090970248 0.090281144
0.069969922 -0.090899646 0.090210304
0.070687473 -0.090829059 0.090139478
0.07135731 -0.090899646 0.090210304
0.072051004 -0.090899646 0.090210304
0.072720133 -0.090970248 0.090281144
0.073413588 -0.090970248 0.090281144
0.07405699 -0.091111436 0.090422809
0.069393165 -0.091038018 0.089364842
0.070111655 -0.090967596 0.089293852
0.070854463 -0.090826735 0.089151859
0.071501851 -0.090967596 0.089293852
0.072196953 -0.090967596 0.089293852
0.072892047 -0.090967596 0.089293852
0.073562354 -0.091038018 0.089364842
0.074257217 -0.091038018 0.089364842
0.069627047 -0.090826735 0.088161916
0.070324257 -0.090826735 0.088161916
0.07102146 -0.090826735 0.088161916
0.071694583 -0.090896994 0.088233069
0.072391555 -0.090896994 0.088233069
0.073113084 -0.090826735 0.088161916
0.073810287 -0.090826735 0.088161916
0.069884323 -0.090548664 0.08688435
0.070607729 -0.090478584 0.086813033
0.071283884 -0.090548664 0.08688435
0.071959578 -0.090618744 0.086955667
0.072659135 -0.090618744 0.086955667
0.073358677 -0.090618744 0.086955667
0.074008636 -0.09075895 0.087098315
0.070258535 -0.089924589 0.085245684
0.07091482 -0.090064436 0.085388675
0.071522452 -0.090344176 0.085674644
0.072200485 -0.090414107 0.085746124
0.072902381 -0.090414107 0.085746124
0.073579714 -0.090484008 0.085817605
0.070469029 -0.089794159 0.084103331
0.071151048 -0.089863911 0.084174976
0.071784876 -0.090073213 0.084389955
0.072417304 -0.090282515 0.084604919
0.073121309 -0.090282515 0.084604919
0.07077308 -0.089388296 0.082670689
0.07143452 -0.089527503 0.082814336
0.072071165 -0.089736298 0.083029792
0.072778672 -0.089736298 0.083029792
0.073413208 -0.089945123 0.083245263
0.073705114 -0.089611664 0.081881642
0 0 0 1 0 0 0 1 0 0 0 1 0 0 0 0 0 490 1 0 0
