ply
format ascii 1.0
comment PCL generated
element vertex 501
property float x
property float y
property float z
element camera 1
property float view_px
property float view_py
property float view_pz
property float x_axisx
property float x_axisy
property float x_axisz
property float y_axisx
property float y_axisy
property float y_axisz
property float z_axisx
property float z_axisy
property float z_axisz
property float focal
property float scalex
property float scaley
property float centerx
property float centery
property int viewportx
property int viewporty
property float k1
property float k2
end_header
0.069662757 -0.088824168 0.13174236
0.070291109 -0.088824168 0.13174236
0.070919462 -0.088824168 0.13174236
0.068406053 -0.089268491 0.13129804
0.069034405 -0.089268491 0.13129804
0.069636784 -0.089347035 0.13136092
0.070264906 -0.089347035 0.13136092
0.070866592 -0.089425579 0.1314238
0.071494475 -0.089425579 0.1314238
0.072095469 -0.089504093 0.13148665
0.067752436 -0.089791179 0.13091677
0.068406053 -0.089712799 0.13085373
0.069034405 -0.089712799 0.13085373
0.069636784 -0.089791179 0.13091677
0.070264906 -0.089791179 0.13091677
0.070893019 -0.089791179 0.13091677
0.071494475 -0.089869559 0.13097982
0.072068557 -0.090026304 0.1311059
0.072695971 -0.090026304 0.1311059
0.073296025 -0.090104669 0.13116893
0.067099288 -0.090313539 0.13053584
0.067727178 -0.090313539 0.13053584
0.068380557 -0.090235338 0.13047263
0.069008671 -0.090235338 0.13047263
0.069610827 -0.090313539 0.13053584
0.070238717 -0.090313539 0.13053584
0.070866592 -0.090313539 0.13053584
0.071467817 -0.090391725 0.13059902
0.072095469 -0.090391725 0.13059902
0.072668836 -0.090548158 0.13072546
0.073296025 -0.090548158 0.13072546
0.073895596 -0.090626389 0.13078867
0.066446617 -0.090835541 0.13015521
0.067074262 -0.090835541 0.13015521
0.067701921 -0.090835541 0.13015521
0.068329573 -0.090835541 0.13015521
0.068982944 -0.090757519 0.13009186
0.069610827 -0.090757519 0.13009186
0.070238717 -0.090757519 0.13009186
0.070866592 -0.090757519 0.13009186
0.071441144 -0.090913609 0.1302186
0.072068557 -0.090913609 0.1302186
0.072695971 -0.090913609 0.1302186
0.073296025 -0.090991646 0.13028197
0.073895596 -0.091069698 0.13034534
0.066421822 -0.091357261 0.12977494
0.067074262 -0.091279358 0.12971139
0.067676648 -0.091357261 0.12977494
0.068304069 -0.091357261 0.12977494
0.068957217 -0.091279358 0.12971139
0.069584869 -0.091279358 0.12971139
0.070212521 -0.091279358 0.12971139
0.070840165 -0.091279358 0.12971139
0.071467817 -0.091279358 0.12971139
0.072068557 -0.091357261 0.12977494
0.072668836 -0.091435134 0.12983848
0.073296025 -0.091435134 0.12983848
0.073923208 -0.091435134 0.12983848
0.07452254 -0.091513023 0.12990203
0.066421822 -0.091800898 0.12933129
0.067049235 -0.091800898 0.12933129
0.067676648 -0.091800898 0.12933129
0.068329573 -0.091723174 0.12926759
0.068931475 -0.091800898 0.12933129
0.069558896 -0.091800898 0.12933129
0.070212521 -0.091723174 0.12926759
0.070813723 -0.091800898 0.12933129
0.071441144 -0.091800898 0.12933129
0.072068557 -0.091800898 0.12933129
0.072668836 -0.091878608 0.12939501
0.073268652 -0.091956347 0.12945871
0.073923208 -0.091878608 0.12939501
0.07452254 -0.091956347 0.12945871
0.066397026 -0.092322096 0.12895152
0.067049235 -0.092244551 0.12888765
0.067676648 -0.092244551 0.12888765
0.068304069 -0.092244551 0.12888765
0.068931475 -0.092244551 0.12888765
0.069584869 -0.09216699 0.12882377
0.070212521 -0.09216699 0.12882377
0.070840165 -0.09216699 0.12882377
0.071467817 -0.09216699 0.12882377
0.072068557 -0.092244551 0.12888765
0.072695971 -0.092244551 0.12888765
0.073296025 -0.092322096 0.12895152
0.073923208 -0.092322096 0.12895152
0.074550383 -0.092322096 0.12895152
0.075177565 -0.092322096 0.12895152
0.067024209 -0.092765585 0.12850803
0.067676648 -0.092688203 0.128444
0.068304069 -0.092688203 0.128444
0.068957217 -0.092610806 0.12837996
0.069610827 -0.092533439 0.12831593
0.070238717 -0.092533439 0.12831593
0.070866592 -0.092533439 0.12831593
0.071494475 -0.092533439 0.12831593
0.072122365 -0.092533439 0.12831593
0.072723113 -0.092610806 0.12837996
0.073323391 -0.092688203 0.128444
0.073950805 -0.092688203 0.128444
0.074578218 -0.092688203 0.128444
0.067024209 -0.093209058 0.12806454
0.067676648 -0.093131855 0.12800035
0.068355061 -0.092977419 0.12787196
0.069008671 -0.092900217 0.12780775
0.069662757 -0.092822984 0.12774354
0.070317306 -0.092745766 0.12767935
0.070945889 -0.092745766 0.12767935
0.071574479 -0.092745766 0.12767935
0.072176166 -0.092822984 0.12774354
0.072777376 -0.092900217 0.12780775
0.073378131 -0.092977419 0.12787196
0.074006014 -0.092977419 0.12787196
0.074578218 -0.093131855 0.12800035
0.067727178 -0.0934214 0.12742797
0.068406053 -0.093267292 0.12729923
0.069060132 -0.093190253 0.12723486
0.069688715 -0.093190253 0.12723486
0.070343509 -0.093113184 0.12717049
0.070998751 -0.09303613 0.12710613
0.071627811 -0.09303613 0.12710613
0.072203062 -0.093190253 0.12723486
0.072858788 -0.093113184 0.12717049
0.073405497 -0.093344361 0.12736361
0.074006014 -0.0934214 0.12742797
0.06790401 -0.09332718 0.12653224
0.068686515 -0.09286584 0.12614504
0.069317438 -0.09286584 0.12614504
0.069948368 -0.09286584 0.12614504
0.070605494 -0.092788965 0.1260805
0.071183786 -0.092942744 0.12620957
0.071814477 -0.092942744 0.12620957
0.072364479 -0.0931734 0.12640318
0.072940193 -0.09332718 0.12653224
0.073460236 -0.093634725 0.12679039
0.074061222 -0.093711615 0.12685493
0.068207152 -0.092851654 0.12531072
0.069446087 -0.09292838 0.1253754
0.070104152 -0.092851654 0.12531072
0.070710286 -0.09292838 0.1253754
0.071342386 -0.09292838 0.1253754
0.071921147 -0.093081817 0.12550482
0.072498977 -0.093235269 0.12563421
0.073048733 -0.093465418 0.12582831
0.073569715 -0.093772322 0.1260871
0.06990923 -0.091997325 0.12376086
0.070415728 -0.092380106 0.12408519
0.071024671 -0.092456669 0.12415007
0.071580283 -0.092686325 0.12434466
0.072214492 -0.092686325 0.12434466
0.072714195 -0.093069106 0.12466897
0.073238678 -0.09337534 0.12492844
0.070165284 -0.091140836 0.11966763
0.07086125 -0.090989038 0.11953658
0.071480274 -0.09106493 0.1196021
0.072151214 -0.090989038 0.11953658
0.072901927 -0.090685472 0.11927447
0.073574513 -0.090609565 0.11920892
0.069722869 -0.090990737 0.11868635
0.070394747 -0.090915009 0.11862066
0.071067095 -0.090839282 0.11855495
0.071713954 -0.090839282 0.11855495
0.072334602 -0.090915009 0.11862066
0.073007658 -0.090839282 0.11855495
0.07365451 -0.090839282 0.11855495
0.069301724 -0.090767741 0.11763655
0.069924966 -0.09084329 0.11770241
0.070598722 -0.090767741 0.11763655
0.071247205 -0.090767741 0.11763655
0.071869738 -0.09084329 0.11770241
0.072518006 -0.09084329 0.11770241
0.073166259 -0.09084329 0.11770241
0.073841184 -0.090767741 0.11763655
0.069552004 -0.090472341 0.11651775
0.07015232 -0.090623111 0.11664979
0.070777193 -0.09069851 0.11671583
0.071401589 -0.09077391 0.11678185
0.072051495 -0.09077391 0.11678185
0.072701395 -0.09077391 0.11678185
0.073298417 -0.090924695 0.11691388
0.074027851 -0.09069851 0.11671583
0.069149107 -0.090180218 0.11539564
0.069727205 -0.090405911 0.11559419
0.070329152 -0.090556368 0.11572659
0.070930168 -0.09070684 0.11585897
0.071555965 -0.090782076 0.11592516
0.072155342 -0.090932548 0.11605754
0.072779991 -0.091007754 0.11612374
0.073430583 -0.091007754 0.11612374
0.074081182 -0.091007754 0.11612374
0.07473179 -0.091007754 0.11612374
0.068790644 -0.089741305 0.1141375
0.069297872 -0.090191677 0.11453563
0.069902398 -0.090341821 0.11466834
0.070480719 -0.090567023 0.11486742
0.071083143 -0.090717167 0.11500014
0.071684629 -0.090867266 0.11513284
0.072285175 -0.09101741 0.11526555
0.072884783 -0.091167539 0.11539826
0.073509879 -0.091242626 0.11546463
0.074161187 -0.091242626 0.11546463
0.074812494 -0.091242626 0.11546463
0.068913437 -0.089830667 0.11334105
0.069446631 -0.090205148 0.11367366
0.070002504 -0.090504766 0.11393975
0.070632294 -0.090579659 0.11400625
0.071236119 -0.090729445 0.1141393
0.071787544 -0.091029063 0.11440539
0.072389022 -0.091178864 0.11453845
0.073015779 -0.091253743 0.11460495
0.073642053 -0.091328636 0.11467147
0.07429453 -0.091328636 0.11467147
0.074947007 -0.091328636 0.11467147
0.068402231 -0.089846939 0.11247624
0.069011673 -0.089996397 0.11260961
0.069620185 -0.090145871 0.11274299
0.07015267 -0.090519547 0.11307642
0.070783868 -0.090594262 0.1131431
0.071312606 -0.090967953 0.11347656
0.071941927 -0.091042683 0.11354323
0.072518855 -0.09126687 0.11374329
0.073146768 -0.091341615 0.11380999
0.073747776 -0.091491088 0.11394337
0.074401192 -0.091491088 0.11394337
0.068499535 -0.090014324 0.11174315
0.069085352 -0.09023805 0.11194372
0.069694564 -0.090387166 0.1120774
0.07027781 -0.090610877 0.11227798
0.070884913 -0.090760022 0.11241169
0.071491078 -0.090909168 0.1125454
0.072070576 -0.091132864 0.11274594
0.072622709 -0.091431141 0.11301337
0.07325156 -0.091505706 0.1130802
0.073879942 -0.091580257 0.11314705
0.067960486 -0.090108648 0.11094174
0.068548188 -0.090331852 0.11114277
0.069183588 -0.090406269 0.11120979
0.069818534 -0.090480655 0.11127682
0.070402943 -0.09070389 0.11147788
0.07101123 -0.090852663 0.1116119
0.071618564 -0.091001481 0.11174594
0.072173499 -0.091299102 0.11201403
0.072778493 -0.09144792 0.11214805
0.073382556 -0.091596708 0.1122821
0.074038535 -0.091596708 0.1122821
0.068056852 -0.090278864 0.11020581
0.068669811 -0.090427339 0.11034019
0.069281831 -0.090575814 0.11047457
0.069892913 -0.090724304 0.11060894
0.070503056 -0.090872765 0.1107433
0.071137533 -0.090947002 0.11081047
0.071720548 -0.09116973 0.11101204
0.072327882 -0.091318175 0.11114639
0.072934285 -0.091466665 0.11128075
0.073513545 -0.091689393 0.11148232
0.074170701 -0.091689393 0.11148232
0.067562237 -0.090228185 0.10926655
0.068177305 -0.090376332 0.10940126
0.068767115 -0.090598539 0.10960329
0.069404624 -0.090672627 0.10967065
0.070016876 -0.09082076 0.10980535
0.070653223 -0.090894833 0.1098727
0.071238585 -0.091117054 0.11007473
0.071873523 -0.091191128 0.11014211
0.072456531 -0.091413334 0.11034414
0.073038138 -0.09163557 0.1105462
0.073696941 -0.09163557 0.1105462
0.068297759 -0.09047547 0.10859503
0.068913057 -0.090623289 0.10873005
0.069551982 -0.090697169 0.10879757
0.070165642 -0.090844989 0.1089326
0.070828415 -0.090844989 0.1089326
0.071415417 -0.091066688 0.10913514
0.072001003 -0.091288432 0.10933769
0.072662368 -0.091288432 0.10933769
0.073245853 -0.091510147 0.10954024
0.073880337 -0.091584057 0.10960773
0.068418212 -0.090576246 0.10778713
0.069083333 -0.090576246 0.10778713
0.069723897 -0.090649977 0.10785481
0.070363991 -0.090723708 0.10792249
0.071003608 -0.090797469 0.10799018
0.071592249 -0.091018677 0.1081932
0.072204977 -0.091166154 0.10832858
0.072842479 -0.091239914 0.10839626
0.073479541 -0.091313645 0.10846394
0.074089922 -0.091461137 0.10859931
0.067943946 -0.090457946 0.10677405
0.068562753 -0.090605095 0.10690975
0.069229282 -0.090605095 0.10690975
0.069895811 -0.090605095 0.10690975
0.070512749 -0.090752259 0.10704544
0.071153782 -0.090825826 0.10711327
0.071769081 -0.09097296 0.10724898
0.072408937 -0.091046557 0.10731682
0.073048331 -0.091120124 0.10738467
0.073687255 -0.091193691 0.10745251
0.068087086 -0.090489119 0.10589434
0.068707302 -0.09063594 0.10603037
0.069375239 -0.09063594 0.10603037
0.070043169 -0.09063594 0.10603037
0.070686303 -0.090709358 0.1060984
0.071278915 -0.090929583 0.10630241
0.071920656 -0.091002986 0.10637042
0.072587416 -0.091002986 0.10637042
0.073228441 -0.091076404 0.10643844
0.07389497 -0.091076404 0.10643844
0.06820637 -0.090595543 0.10508083
0.068827756 -0.090742037 0.10521717
0.069545515 -0.090595543 0.10508083
0.070215084 -0.090595543 0.10508083
0.070859857 -0.090668797 0.10514902
0.071504168 -0.090742037 0.10521717
0.072097488 -0.090961754 0.10542171
0.072765894 -0.090961754 0.10542171
0.073434286 -0.090961754 0.10542171
0.074102685 -0.090961754 0.10542171
0.068325654 -0.090703592 0.10426566
0.068996392 -0.090703592 0.10426566
0.069667138 -0.090703592 0.10426566
0.070337877 -0.090703592 0.10426566
0.071033418 -0.090630502 0.10419729
0.071679361 -0.090703592 0.10426566
0.072350107 -0.090703592 0.10426566
0.073020846 -0.090703592 0.10426566
0.073665857 -0.090776667 0.104334
0.068468794 -0.090740412 0.10338031
0.069140941 -0.090740412 0.10338031
0.069837414 -0.090667501 0.10331181
0.070509791 -0.090667501 0.10331181
0.071182176 -0.090667501 0.10331181
0.071854554 -0.090667501 0.10331181
0.072552204 -0.090594575 0.10324329
0.07322482 -0.090594575 0.10324329
0.073897429 -0.090594575 0.10324329
0.068635792 -0.090706453 0.10242432
0.069309577 -0.090706453 0.10242432
0.070007689 -0.09063372 0.10235564
0.070681706 -0.09063372 0.10235564
0.07135573 -0.09063372 0.10235564
0.0720798 -0.090488225 0.1022183
0.072754294 -0.090488225 0.1022183
0.073428787 -0.090488225 0.1022183
0.074103266 -0.090488225 0.1022183
0.068850502 -0.090529665 0.10132831
0.069502302 -0.090602249 0.10139717
0.070202291 -0.090529665 0.10132831
0.070853621 -0.090602249 0.10139717
0.07155408 -0.090529665 0.10132831
0.072229974 -0.090529665 0.10132831
0.072905868 -0.090529665 0.10132831
0.073581763 -0.090529665 0.10132831
0.074283384 -0.090457097 0.10125948
0.074959509 -0.090457097 0.10125948
0.068969786 -0.090645522 0.10050537
0.069670938 -0.090573102 0.10043637
0.070323914 -0.090645522 0.10050537
0.071025535 -0.090573102 0.10043637
0.071678042 -0.090645522 0.10050537
0.072355106 -0.090645522 0.10050537
0.073032178 -0.090645522 0.10050537
0.07365825 -0.090790361 0.10064338
0.074386306 -0.090645522 0.10050537
0.07506337 -0.090645522 0.10050537
0.069136783 -0.090618521 0.099542424
0.069815487 -0.090618521 0.099542424
0.070469871 -0.090690777 0.099611565
0.071148336 -0.090690777 0.099611565
0.071752422 -0.090907529 0.099819094
0.072430186 -0.090907529 0.099819094
0.073158488 -0.090763032 0.099680766
0.073836721 -0.090763032 0.099680766
0.074514955 -0.090763032 0.099680766
0.068576187 -0.090738028 0.098715812
0.069232211 -0.09081009 0.098785147
0.06993594 -0.090738028 0.098715812
0.070615813 -0.090738028 0.098715812
0.071271136 -0.09081009 0.098785147
0.071876399 -0.091026351 0.098993152
0.072555333 -0.091026351 0.098993152
0.073234275 -0.091026351 0.098993152
0.073887713 -0.091098443 0.099062502
0.074566416 -0.091098443 0.099062502
0.068013258 -0.09085916 0.097887546
0.068670683 -0.090931088 0.09795706
0.069351494 -0.090931088 0.09795706
0.070056401 -0.09085916 0.097887546
0.070713118 -0.090931088 0.09795706
0.071393929 -0.090931088 0.09795706
0.072000362 -0.091146842 0.098165557
0.072680473 -0.091146842 0.098165557
0.073360585 -0.091146842 0.098165557
0.074015193 -0.09121877 0.098235071
0.0747208 -0.091146842 0.098165557
0.068130195 -0.090981975 0.097057641
0.068812415 -0.090981975 0.097057641
0.069494635 -0.090981975 0.097057641
0.070176847 -0.090981975 0.097057641
0.070859075 -0.090981975 0.097057641
0.071516722 -0.091053739 0.097127318
0.07214912 -0.091197252 0.097266644
0.072830632 -0.091197252 0.097266644
0.073486887 -0.091268986 0.097336307
0.074193664 -0.091197252 0.097266644
0.068270527 -0.091034859 0.096156254
0.068930529 -0.09110643 0.096226066
0.069637768 -0.091034859 0.096156254
0.070321389 -0.091034859 0.096156254
0.071005017 -0.091034859 0.096156254
0.07166408 -0.09110643 0.096226066
0.07227309 -0.091321185 0.096435577
0.073005833 -0.091178015 0.096295893
0.073638462 -0.091321185 0.096435577
0.074321151 -0.091321185 0.096435577
0.068364076 -0.091232553 0.095392853
0.069048643 -0.091232553 0.095392853
0.069757059 -0.091161117 0.095322847
0.07044185 -0.091161117 0.095322847
0.071102321 -0.091232553 0.095392853
0.071737759 -0.091375396 0.095532864
0.072471432 -0.091232553 0.095392853
0.073155992 -0.091232553 0.095392853
0.073790029 -0.091375396 0.095532864
0.074525118 -0.091232553 0.095392853
0.06916675 -0.091360331 0.094557986
0.069876343 -0.091289058 0.094487816
0.070562303 -0.091289058 0.094487816
0.071248271 -0.091289058 0.094487816
0.071934238 -0.091289058 0.094487816
0.072595403 -0.091360331 0.094557986
0.073306166 -0.091289058 0.094487816
0.073992133 -0.091289058 0.094487816
0.068621352 -0.091418669 0.093651101
0.069332115 -0.091347545 0.093580768
0.07006719 -0.091205388 0.09344013
0.070755027 -0.091205388 0.09344013
0.071442872 -0.091205388 0.09344013
0.07213071 -0.091205388 0.09344013
0.072768964 -0.091347545 0.093580768
0.073456332 -0.091347545 0.093580768
0.074194223 -0.091205388 0.09344013
0.068855241 -0.091195285 0.092460245
0.069544718 -0.091195285 0.092460245
0.070258051 -0.091124356 0.092389777
0.070947759 -0.091124356 0.092389777
0.071637474 -0.091124356 0.092389777
0.072278067 -0.091266215 0.092530772
0.072992101 -0.091195285 0.092460245
0.073681578 -0.091195285 0.092460245
0.074371062 -0.091195285 0.092460245
0.069089122 -0.09097521 0.091266125
0.06975732 -0.091045976 0.091336772
0.070472762 -0.09097521 0.091266125
0.07114049 -0.091045976 0.091336772
0.071856402 -0.09097521 0.091266125
0.072499096 -0.091116741 0.091407448
0.073215246 -0.091045976 0.091336772
0.073831744 -0.091258273 0.091548771
0.069946297 -0.090970248 0.090281144
0.070663616 -0.090899646 0.090210304
0.071333215 -0.090970248 0.090281144
0.072026677 -0.090970248 0.090281144
0.072671011 -0.091111436 0.090422809
0.073364004 -0.091111436 0.090422809
0.07405699 -0.091111436 0.090422809
0.070158899 -0.090826735 0.089151859
0.070854463 -0.090826735 0.089151859
0.071501851 -0.090967596 0.089293852
0.072196953 -0.090967596 0.089293852
0.072892047 -0.090967596 0.089293852
0.073562354 -0.091038018 0.089364842
0.074257217 -0.091038018 0.089364842
0.070395119 -0.090615958 0.087948456
0.07109303 -0.090615958 0.087948456
0.07171867 -0.090826735 0.088161916
0.072391555 -0.090896994 0.088233069
0.073088527 -0.090896994 0.088233069
0.073785499 -0.090896994 0.088233069
0.070631355 -0.090408474 0.086741701
0.071379319 -0.090268269 0.086599052
0.071983665 -0.090548664 0.08688435
0.072659135 -0.090618744 0.086955667
0.073358677 -0.090618744 0.086955667
0.073959053 -0.090899155 0.087240964
0.070867576 -0.090204298 0.085531667
0.07159403 -0.090134367 0.085460156
0.072200485 -0.090414107 0.085746124
0.072829403 -0.090623885 0.085960582
0.073530592 -0.090623885 0.085960582
0.07418219 -0.090763748 0.086103573
0.070562586 -0.089515075 0.083816707
0.071198292 -0.089724377 0.084031671
0.071784876 -0.090073213 0.084389955
0.072393216 -0.090352282 0.084676549
0.073024005 -0.090561569 0.084891543
0.070157014 -0.089109898 0.082383409
0.070843242 -0.089179501 0.082455248
0.071481764 -0.089388296 0.082670689
0.072166584 -0.089457914 0.082742527
0.07280276 -0.089666709 0.082957983
0.073486187 -0.089736298 0.083029792
0 0 0 1 0 0 0 1 0 0 0 1 0 0 0 0 0 501 1 0 0
