ply
format ascii 1.0
comment PCL generated
element vertex 500
property float x
property float y
property float z
element camera 1
property float view_px
property float view_py
property float view_pz
property float x_axisx
property float x_axisy
property float x_axisz
property float y_axisx
property float y_axisy
property float y_axisz
property float z_axisx
property float z_axisy
property float z_axisz
property float focal
property float scalex
property float scaley
property float centerx
property float centery
property int viewportx
property int viewporty
property float k1
property float k2
end_header
0.069740646 -0.088588044 0.13155422
0.070317306 -0.088745475 0.13167964
0.070972323 -0.088666752 0.13161692
0.071574479 -0.088745475 0.13167964
0.068457045 -0.089111388 0.13117227
0.069085866 -0.089111388 0.13117227
0.069714688 -0.089111388 0.13117227
0.070317306 -0.089189947 0.13123517
0.070945889 -0.089189947 0.13123517
0.071547814 -0.089268491 0.13129804
0.072176166 -0.089268491 0.13129804
0.072804518 -0.089268491 0.13129804
0.067777701 -0.089712799 0.13085373
0.068431549 -0.089634418 0.13079068
0.069060132 -0.089634418 0.13079068
0.069714688 -0.089556038 0.13072763
0.070317306 -0.089634418 0.13079068
0.070945889 -0.089634418 0.13079068
0.071547814 -0.089712799 0.13085373
0.072176166 -0.089712799 0.13085373
0.072777376 -0.089791179 0.13091677
0.073405497 -0.089791179 0.13091677
0.067149349 -0.090157107 0.13040942
0.067777701 -0.090157107 0.13040942
0.068380557 -0.090235338 0.13047263
0.069008671 -0.090235338 0.13047263
0.069662757 -0.090157107 0.13040942
0.070291109 -0.090157107 0.13040942
0.070919462 -0.090157107 0.13040942
0.071521141 -0.090235338 0.13047263
0.072149262 -0.090235338 0.13047263
0.072777376 -0.090235338 0.13047263
0.073405497 -0.090235338 0.13047263
0.074033618 -0.090235338 0.13047263
0.067099288 -0.090757519 0.13009186
0.067727178 -0.090757519 0.13009186
0.068355061 -0.090757519 0.13009186
0.069008671 -0.090679482 0.13002849
0.069636784 -0.090679482 0.13002849
0.070264906 -0.090679482 0.13002849
0.070919462 -0.090601414 0.1299651
0.071521141 -0.090679482 0.13002849
0.072149262 -0.090679482 0.13002849
0.072750241 -0.090757519 0.13009186
0.073378131 -0.090757519 0.13009186
0.074006014 -0.090757519 0.13009186
0.074606061 -0.090835541 0.13015521
0.066446617 -0.091279358 0.12971139
0.067074262 -0.091279358 0.12971139
0.067701921 -0.091279358 0.12971139
0.068329573 -0.091279358 0.12971139
0.068982944 -0.091201499 0.12964788
0.069610827 -0.091201499 0.12964788
0.070264906 -0.091123626 0.12958434
0.070893019 -0.091123626 0.12958434
0.071521141 -0.091123626 0.12958434
0.072149262 -0.091123626 0.12958434
0.072750241 -0.091201499 0.12964788
0.073405497 -0.091123626 0.12958434
0.074006014 -0.091201499 0.12964788
0.074633896 -0.091201499 0.12964788
0.066421822 -0.091800898 0.12933129
0.067049235 -0.091800898 0.12933129
0.067701921 -0.091723174 0.12926759
0.068329573 -0.091723174 0.12926759
0.068982944 -0.091645479 0.1292039
0.069610827 -0.091645479 0.1292039
0.070264906 -0.09156777 0.1291402
0.070893019 -0.09156777 0.1291402
0.071521141 -0.09156777 0.1291402
0.072149262 -0.09156777 0.1291402
0.072750241 -0.091645479 0.1292039
0.073405497 -0.09156777 0.1291402
0.074033618 -0.09156777 0.1291402
0.074633896 -0.091645479 0.1292039
0.067049235 -0.092244551 0.12888765
0.067676648 -0.092244551 0.12888765
0.068329573 -0.09216699 0.12882377
0.068982944 -0.092089459 0.12875992
0.069610827 -0.092089459 0.12875992
0.070264906 -0.092011914 0.12869605
0.070919462 -0.091934353 0.12863216
0.071547814 -0.091934353 0.12863216
0.072149262 -0.092011914 0.12869605
0.072777376 -0.092011914 0.12869605
0.073405497 -0.092011914 0.12869605
0.074033618 -0.092011914 0.12869605
0.074661732 -0.092011914 0.12869605
0.067676648 -0.092688203 0.128444
0.068329573 -0.092610806 0.12837996
0.068957217 -0.092610806 0.12837996
0.069610827 -0.092533439 0.12831593
0.070291109 -0.092378676 0.12818785
0.070919462 -0.092378676 0.12818785
0.071547814 -0.092378676 0.12818785
0.072176166 -0.092378676 0.12818785
0.072804518 -0.092378676 0.12818785
0.07343287 -0.092378676 0.12818785
0.074061222 -0.092378676 0.12818785
0.074661732 -0.092456073 0.1282519
0.067676648 -0.093131855 0.12800035
0.068329573 -0.093054622 0.12793614
0.068957217 -0.093054622 0.12793614
0.069636784 -0.092900217 0.12780775
0.070317306 -0.092745766 0.12767935
0.070998751 -0.09259133 0.12755093
0.071654484 -0.092514098 0.12748672
0.072229974 -0.092668533 0.12761512
0.072885916 -0.09259133 0.12755093
0.073460236 -0.092745766 0.12767935
0.074116431 -0.092668533 0.12761512
0.074689567 -0.092822984 0.12774354
0.068431549 -0.093190253 0.12723486
0.069085866 -0.093113184 0.12717049
0.069688715 -0.093190253 0.12723486
0.070422105 -0.092882037 0.12697738
0.071078055 -0.092804968 0.126913
0.071734481 -0.092727929 0.12684865
0.072337575 -0.092804968 0.126913
0.072940193 -0.092882037 0.12697738
0.073542349 -0.092959076 0.12704174
0.074116431 -0.093113184 0.12717049
0.068712004 -0.092788965 0.1260805
0.069214515 -0.0931734 0.12640318
0.069896437 -0.09301962 0.12627411
0.070605494 -0.092788965 0.1260805
0.071183786 -0.092942744 0.12620957
0.071814477 -0.092942744 0.12620957
0.07241828 -0.09301962 0.12627411
0.072967328 -0.093250275 0.12646769
0.073597088 -0.093250275 0.12646769
0.074144036 -0.093480945 0.12666132
0.070104152 -0.092851654 0.12531072
0.070736483 -0.092851654 0.12531072
0.071368814 -0.092851654 0.12531072
0.072001152 -0.092851654 0.12531072
0.072606586 -0.09292838 0.1253754
0.073157281 -0.093158528 0.12556949
0.070063613 -0.091537982 0.12337168
0.070545547 -0.091997325 0.12376086
0.071234263 -0.091844201 0.12363113
0.071738876 -0.092226982 0.12395546
0.07224115 -0.092609778 0.1242798
0.0728487 -0.092686325 0.12434466
0.070960984 -0.091225013 0.12227044
0.071548648 -0.09137781 0.12240049
0.072029635 -0.091836169 0.12279068
0.072614498 -0.091988921 0.12292074
0.072478995 -0.090991601 0.12123106
0.070758335 -0.090837181 0.12025408
0.071376413 -0.090913266 0.12031946
0.072046429 -0.090837181 0.12025408
0.072716892 -0.09076114 0.12018874
0.073334508 -0.090837181 0.12025408
0.069647081 -0.090761334 0.11933997
0.070292771 -0.090761334 0.11933997
0.070938446 -0.090761334 0.11933997
0.071558163 -0.09083724 0.11940552
0.072203614 -0.09083724 0.11940552
0.072849058 -0.09083724 0.11940552
0.073494509 -0.09083724 0.11940552
0.074166864 -0.090761334 0.11933997
0.069226645 -0.090536371 0.11829217
0.069798648 -0.090763554 0.11848927
0.070445739 -0.090763554 0.11848927
0.071092822 -0.090763554 0.11848927
0.071713954 -0.090839282 0.11855495
0.072334602 -0.090915009 0.11862066
0.073007658 -0.090839282 0.11855495
0.073681176 -0.090763554 0.11848927
0.069501951 -0.090163231 0.11710967
0.07002601 -0.090541065 0.11743897
0.07062421 -0.090692177 0.1175707
0.071272932 -0.090692177 0.1175707
0.071869738 -0.09084329 0.11770241
0.072491802 -0.090918869 0.11776827
0.073139817 -0.090918869 0.11776827
0.073787846 -0.090918869 0.11776827
0.074408978 -0.090994418 0.11783411
0.075056762 -0.090994418 0.11783411
0.069677144 -0.090095326 0.11618762
0.070253365 -0.090321541 0.11638571
0.070828184 -0.090547711 0.11658378
0.071427315 -0.09069851 0.11671583
0.072077453 -0.09069851 0.11671583
0.072648995 -0.090924695 0.11691388
0.073245555 -0.091075495 0.11704594
0.073921181 -0.09100011 0.11697993
0.07457038 -0.09100011 0.11697993
0.075192437 -0.091075495 0.11704594
0.069099523 -0.090330675 0.11552802
0.069727205 -0.090405911 0.11559419
0.070354417 -0.090481147 0.1156604
0.070930168 -0.09070684 0.11585897
0.071530238 -0.090857297 0.11599134
0.072155342 -0.090932548 0.11605754
0.072779991 -0.091007754 0.11612374
0.073377714 -0.091158226 0.11625612
0.074027851 -0.091158226 0.11625612
0.074651085 -0.091233462 0.11632229
0.075300984 -0.091233462 0.11632229
0.069273077 -0.090266749 0.114602
0.069902398 -0.090341821 0.11466834
0.070531249 -0.090416893 0.11473471
0.071083143 -0.090717167 0.11500014
0.071684629 -0.090867266 0.11513284
0.072285175 -0.09101741 0.11526555
0.072858579 -0.091242626 0.11546463
0.073483452 -0.091317669 0.11553097
0.074107848 -0.091392756 0.11559734
0.074758686 -0.091392756 0.11559734
0.068815202 -0.09013024 0.11360712
0.069421835 -0.090280041 0.11374018
0.070002504 -0.090504766 0.11393975
0.070607036 -0.090654537 0.11407277
0.07121063 -0.090804338 0.11420581
0.071787544 -0.091029063 0.11440539
0.072414994 -0.091103956 0.1144719
0.072989583 -0.091328636 0.11467147
0.073615611 -0.091403559 0.11473799
0.074241191 -0.091478452 0.11480451
0.074839398 -0.091628253 0.11493756
0.068913437 -0.090295345 0.11287637
0.069545805 -0.090370074 0.11294305
0.070177697 -0.090444818 0.11300975
0.070783868 -0.090594262 0.1131431
0.07133811 -0.090893209 0.11340986
0.0719162 -0.091117397 0.11360991
0.072518855 -0.09126687 0.11374329
0.073094368 -0.091491088 0.11394337
0.073721342 -0.091565818 0.11401004
0.074347854 -0.091640562 0.11407673
0.068450883 -0.090163469 0.11187686
0.069060795 -0.090312615 0.11201057
0.069669768 -0.090461731 0.11214426
0.07027781 -0.090610877 0.11227798
0.070884913 -0.090760022 0.11241169
0.071465589 -0.090983734 0.11261223
0.072044849 -0.09120743 0.11281279
0.072622709 -0.091431141 0.11301337
0.07325156 -0.091505706 0.1130802
0.073879942 -0.091580257 0.11314705
0.074481197 -0.091729403 0.11328076
0.068548188 -0.090331852 0.11114277
0.069159031 -0.090480655 0.11127682
0.069768943 -0.090629473 0.11141086
0.070377916 -0.090778291 0.11154489
0.070985958 -0.090927079 0.11167893
0.071593069 -0.091075897 0.11181296
0.072173499 -0.091299102 0.11201403
0.072778493 -0.09144792 0.11214805
0.073382556 -0.091596708 0.1122821
0.074012108 -0.091671109 0.11234911
0.074614532 -0.091819927 0.11248314
0.068056852 -0.090278864 0.11020581
0.068669811 -0.090427339 0.11034019
0.069257274 -0.090650052 0.11054173
0.069892913 -0.090724304 0.11060894
0.07052809 -0.090798512 0.11067611
0.071137533 -0.090947002 0.11081047
0.071695052 -0.091243953 0.11107922
0.072302148 -0.091392428 0.11121358
0.07290832 -0.091540903 0.11134796
0.073565945 -0.091540903 0.11134796
0.074170701 -0.091689393 0.11148232
0.068225488 -0.090228185 0.10926655
0.068791434 -0.09052448 0.10953596
0.069453746 -0.09052448 0.10953596
0.070066467 -0.090672627 0.10967065
0.070678249 -0.09082076 0.10980535
0.071238585 -0.091117054 0.11007473
0.071848027 -0.091265187 0.11020944
0.072456531 -0.091413334 0.11034414
0.073038138 -0.09163557 0.1105462
0.073644549 -0.091783687 0.11068088
0.069034688 -0.090253726 0.10839248
0.069674775 -0.09032765 0.10845999
0.070240021 -0.090623289 0.10873005
0.070853442 -0.090771094 0.10886508
0.071364895 -0.091214508 0.10927017
0.072026506 -0.091214508 0.10927017
0.07258518 -0.091510147 0.10954024
0.073219895 -0.091584057 0.10960773
0.073827937 -0.091731846 0.10974276
0.069204964 -0.090207532 0.10744873
0.06984669 -0.090281278 0.10751642
0.070413575 -0.090576246 0.10778713
0.071053669 -0.090649977 0.10785481
0.071617506 -0.090944946 0.10812555
0.072204977 -0.091166154 0.10832858
0.072816752 -0.091313645 0.10846394
0.07342761 -0.091461137 0.10859931
0.068755485 -0.090016484 0.10636698
0.069375239 -0.090163648 0.10650267
0.070018604 -0.09023723 0.10657053
0.070611924 -0.090457946 0.10677405
0.071228862 -0.090605095 0.10690975
0.071819603 -0.090825826 0.10711327
0.072383448 -0.091120124 0.10738467
0.073022604 -0.091193691 0.10745251
0.07366129 -0.091267273 0.10752037
0.068900026 -0.090048671 0.10548629
0.069569834 -0.090048671 0.10548629
0.070215084 -0.090122074 0.10555428
0.070835069 -0.09026891 0.1056903
0.071429089 -0.090489119 0.10589434
0.0720217 -0.090709358 0.1060984
0.072663903 -0.090782762 0.10616638
0.07389497 -0.091076404 0.10643844
0.068421081 -0.089936346 0.10446723
0.069092758 -0.089936346 0.10446723
0.06971579 -0.090082839 0.10460359
0.070362441 -0.090156063 0.10467175
0.071008623 -0.090229318 0.10473993
0.071579248 -0.090522304 0.10501266
0.072223797 -0.090595543 0.10508083
0.07286787 -0.090668797 0.10514902
0.073434286 -0.090961754 0.10542171
0.068588078 -0.089899749 0.10351388
0.069165029 -0.09019205 0.10378726
0.069813095 -0.090265125 0.10385559
0.070485234 -0.090265125 0.10385559
0.071157381 -0.090265125 0.10385559
0.071779475 -0.090411291 0.10399228
0.07240063 -0.090557456 0.10412897
0.073046349 -0.090630502 0.10419729
0.073691584 -0.090703592 0.10426566
0.068611935 -0.090302944 0.10296927
0.069285482 -0.090302944 0.10296927
0.069934718 -0.090375856 0.10303777
0.070632592 -0.090302944 0.10296927
0.071306139 -0.090302944 0.10296927
0.071954668 -0.090375856 0.10303777
0.072627984 -0.090375856 0.10303777
0.073301308 -0.090375856 0.10303777
0.07394889 -0.090448752 0.10310628
0.068056501 -0.090415463 0.10214961
0.068731219 -0.090415463 0.10214961
0.069381848 -0.090488225 0.1022183
0.070080668 -0.090415463 0.10214961
0.070755392 -0.090415463 0.10214961
0.071430109 -0.090415463 0.10214961
0.072104834 -0.090415463 0.10214961
0.072804816 -0.09034273 0.10208096
0.073479779 -0.09034273 0.10208096
0.074154727 -0.09034273 0.10208096
0.068150982 -0.090602249 0.10139717
0.068826646 -0.090602249 0.10139717
0.069526397 -0.090529665 0.10132831
0.070202291 -0.090529665 0.10132831
0.070878185 -0.090529665 0.10132831
0.071578868 -0.090457097 0.10125948
0.072229974 -0.090529665 0.10132831
0.072931126 -0.090457097 0.10125948
0.073607258 -0.090457097 0.10125948
0.074309118 -0.090384498 0.10119063
0.068245478 -0.090790361 0.10064338
0.068922073 -0.090790361 0.10064338
0.06964685 -0.090645522 0.10050537
0.070323914 -0.090645522 0.10050537
0.071000978 -0.090645522 0.10050537
0.071702838 -0.090573102 0.10043637
0.072380133 -0.090573102 0.10043637
0.073057435 -0.090573102 0.10043637
0.073709242 -0.090645522 0.10050537
0.074412033 -0.090573102 0.10043637
0.068339966 -0.09097977 0.099888265
0.069041356 -0.090907529 0.099819094
0.069719121 -0.090907529 0.099819094
0.070445538 -0.090763032 0.099680766
0.071123779 -0.090763032 0.099680766
0.071802013 -0.090763032 0.099680766
0.072480246 -0.090763032 0.099680766
0.073158488 -0.090763032 0.099680766
0.073836721 -0.090763032 0.099680766
0.074514955 -0.090763032 0.099680766
0.068434462 -0.09117052 0.099131823
0.069112927 -0.09117052 0.099131823
0.069815487 -0.091098443 0.099062502
0.07049419 -0.091098443 0.099062502
0.071197458 -0.091026351 0.098993152
0.071851596 -0.091098443 0.099062502
0.072555333 -0.091026351 0.098993152
0.073234275 -0.091026351 0.098993152
0.073913217 -0.091026351 0.098993152
0.074592151 -0.091026351 0.098993152
0.068576187 -0.09121877 0.098235071
0.06925606 -0.09121877 0.098235071
0.069960035 -0.091146842 0.098165557
0.070640147 -0.091146842 0.098165557
0.071320251 -0.091146842 0.098165557
0.072000362 -0.091146842 0.098165557
0.072680473 -0.091146842 0.098165557
0.073360585 -0.091146842 0.098165557
0.074040696 -0.091146842 0.098165557
0.0747208 -0.091146842 0.098165557
0.069470771 -0.091053739 0.097127318
0.07015276 -0.091053739 0.097127318
0.070834741 -0.091053739 0.097127318
0.071516722 -0.091053739 0.097127318
0.072198704 -0.091053739 0.097127318
0.072830632 -0.091197252 0.097266644
0.073512152 -0.091197252 0.097266644
0.074193664 -0.091197252 0.097266644
0.074849449 -0.091268986 0.097336307
0.069661632 -0.090963259 0.096086398
0.070369571 -0.090891674 0.096016586
0.071053669 -0.090891674 0.096016586
0.071688637 -0.091034859 0.096156254
0.072322682 -0.091178015 0.096295893
0.073030859 -0.09110643 0.096226066
0.073688991 -0.091178015 0.096295893
0.07437215 -0.091178015 0.096295893
0.069852479 -0.090875447 0.095042869
0.070538208 -0.090875447 0.095042869
0.071223944 -0.090875447 0.095042869
0.071860559 -0.091018274 0.095182836
0.072496235 -0.091161117 0.095322847
0.073181026 -0.091161117 0.095322847
0.073840559 -0.091232553 0.095392853
0.074525118 -0.091232553 0.095392853
0.06930849 -0.090932786 0.094136983
0.069995627 -0.090932786 0.094136983
0.070682757 -0.090932786 0.094136983
0.071345575 -0.091004029 0.094207138
0.071958795 -0.091217816 0.094417647
0.072620198 -0.091289058 0.094487816
0.073331185 -0.091217816 0.094417647
0.073992133 -0.091289058 0.094487816
0.069544718 -0.090707749 0.092947781
0.070210338 -0.090778843 0.093018144
0.070899576 -0.090778843 0.093018144
0.071515851 -0.090992108 0.093229115
0.072155267 -0.091134295 0.093369782
0.07281854 -0.091205388 0.09344013
0.073456332 -0.091347545 0.093580768
0.0741437 -0.091347545 0.093580768
0.069065735 -0.090556949 0.091825798
0.069733694 -0.090627879 0.09189631
0.070425048 -0.090627879 0.09189631
0.071068212 -0.090769738 0.092037305
0.071710445 -0.090911582 0.092178285
0.072376303 -0.090982497 0.092248783
0.07306648 -0.090982497 0.092248783
0.073706605 -0.091124356 0.092389777
0.074371062 -0.091195285 0.092460245
0.069252834 -0.090479895 0.090771496
0.069899052 -0.090621427 0.090912819
0.070592038 -0.090621427 0.090912819
0.071260944 -0.090692177 0.090983465
0.071905054 -0.090833694 0.091124788
0.072548218 -0.09097521 0.091266125
0.073240034 -0.09097521 0.091266125
0.073881797 -0.091116741 0.091407448
0.074573152 -0.091116741 0.091407448
0.069393165 -0.090546682 0.089856178
0.070064411 -0.090617284 0.089927018
0.070759036 -0.090617284 0.089927018
0.07142958 -0.090687856 0.089997828
0.072051004 -0.090899646 0.090210304
0.072720133 -0.090970248 0.090281144
0.073438391 -0.090899646 0.090210304
0.074107051 -0.090970248 0.090281144
0.070206143 -0.090685874 0.089009866
0.070878319 -0.090756327 0.08908087
0.071550034 -0.090826735 0.089151859
0.072172627 -0.091038018 0.089364842
0.07286749 -0.091038018 0.089364842
0.073587142 -0.090967596 0.089293852
0.074257217 -0.091038018 0.089364842
0.070418753 -0.090545684 0.087877274
0.07109303 -0.090615958 0.087948456
0.071790941 -0.090615958 0.087948456
0.072415873 -0.090826735 0.088161916
0.073113084 -0.090826735 0.088161916
0.073785499 -0.090896994 0.088233069
0.070678599 -0.090268269 0.086599052
0.071379319 -0.090268269 0.086599052
0.072007753 -0.090478584 0.086813033
0.072659135 -0.090618744 0.086955667
0.073309556 -0.09075895 0.087098315
0.073983841 -0.090829059 0.087169647
0.070281923 -0.089854643 0.085174188
0.070962064 -0.089924589 0.085245684
0.071570165 -0.090204298 0.085531667
0.072200485 -0.090414107 0.085746124
0.072878055 -0.090484008 0.085817605
0.073530592 -0.090623885 0.085960582
0.074206978 -0.090693831 0.086032078
0.070492424 -0.089724377 0.084031671
0.071151048 -0.089863911 0.084174976
0.07176102 -0.09014298 0.0844616
0.072393216 -0.090352282 0.084676549
0.073072657 -0.090422049 0.084748223
0.073727064 -0.090561569 0.084891543
0.07077308 -0.089388296 0.082670689
0.071458139 -0.089457914 0.082742527
0.072142728 -0.089527503 0.082814336
0.07280276 -0.089666709 0.082957983
0.073486187 -0.089736298 0.083029792
0 0 0 1 0 0 0 1 0 0 0 1 0 0 0 0 0 500 1 0 0
