ply
format ascii 1.0
comment PCL generated
element vertex 533
property float x
property float y
property float z
element camera 1
property float view_px
property float view_py
property float view_pz
property float x_axisx
property float x_axisy
property float x_axisz
property float y_axisx
property float y_axisy
property float y_axisz
property float z_axisx
property float z_axisy
property float z_axisz
property float focal
property float scalex
property float scaley
property float centerx
property float centery
property int viewportx
property int viewporty
property float k1
property float k2
end_header
0.069034405 -0.088824168 0.13174236
0.069662757 -0.088824168 0.13174236
0.070317306 -0.088745475 0.13167964
0.070945889 -0.088745475 0.13167964
0.067701921 -0.089504093 0.13148665
0.068329573 -0.089504093 0.13148665
0.069008671 -0.089347035 0.13136092
0.069662757 -0.089268491 0.13129804
0.070264906 -0.089347035 0.13136092
0.070919462 -0.089268491 0.13129804
0.071547814 -0.089268491 0.13129804
0.072149262 -0.089347035 0.13136092
0.067049235 -0.090026304 0.1311059
0.067701921 -0.089947909 0.13104284
0.068329573 -0.089947909 0.13104284
0.068982944 -0.089869559 0.13097982
0.069636784 -0.089791179 0.13091677
0.070291109 -0.089712799 0.13085373
0.070919462 -0.089712799 0.13085373
0.071494475 -0.089869559 0.13097982
0.072095469 -0.089947909 0.13104284
0.072723113 -0.089947909 0.13104284
0.066372231 -0.090626389 0.13078867
0.067024209 -0.090548158 0.13072546
0.067651391 -0.090548158 0.13072546
0.068304069 -0.090469956 0.13066225
0.068957217 -0.090391725 0.13059902
0.069610827 -0.090313539 0.13053584
0.070264906 -0.090235338 0.13047263
0.070866592 -0.090313539 0.13053584
0.071494475 -0.090313539 0.13053584
0.072095469 -0.090391725 0.13059902
0.072695971 -0.090469956 0.13066225
0.073323391 -0.090469956 0.13066225
0.06572073 -0.091147751 0.13040872
0.066347443 -0.091147751 0.13040872
0.066999175 -0.091069698 0.13034534
0.067626126 -0.091069698 0.13034534
0.068304069 -0.090913609 0.1302186
0.068931475 -0.090913609 0.1302186
0.069584869 -0.090835541 0.13015521
0.070264906 -0.090679482 0.13002849
0.070866592 -0.090757519 0.13009186
0.071467817 -0.090835541 0.13015521
0.072095469 -0.090835541 0.13015521
0.072695971 -0.090913609 0.1302186
0.073296025 -0.090991646 0.13028197
0.073923208 -0.090991646 0.13028197
0.065671608 -0.091746658 0.13009265
0.066322647 -0.091668785 0.13002911
0.066949122 -0.091668785 0.13002911
0.067626126 -0.091513023 0.12990203
0.068253078 -0.091513023 0.12990203
0.068931475 -0.091357261 0.12977494
0.069584869 -0.091279358 0.12971139
0.070212521 -0.091279358 0.12971139
0.070840165 -0.091279358 0.12971139
0.071494475 -0.091201499 0.12964788
0.072068557 -0.091357261 0.12977494
0.072668836 -0.091435134 0.12983848
0.073296025 -0.091435134 0.12983848
0.073867999 -0.091590896 0.12996557
0.065647043 -0.092267215 0.12971355
0.066322647 -0.092111781 0.12958613
0.066974156 -0.092034042 0.12952241
0.067600869 -0.092034042 0.12952241
0.068253078 -0.091956347 0.12945871
0.068931475 -0.091800898 0.12933129
0.069558896 -0.091800898 0.12933129
0.070238717 -0.091645479 0.1292039
0.070866592 -0.091645479 0.1292039
0.071467817 -0.091723174 0.12926759
0.072068557 -0.091800898 0.12933129
0.072668836 -0.091878608 0.12939501
0.073296025 -0.091878608 0.12939501
0.073923208 -0.091878608 0.12939501
0.07452254 -0.091956347 0.12945871
0.065671608 -0.092632309 0.12920702
0.066297852 -0.092632309 0.12920702
0.066949122 -0.092554763 0.12914315
0.067600869 -0.092477202 0.12907927
0.068253078 -0.092399657 0.1290154
0.068931475 -0.092244551 0.12888765
0.069584869 -0.09216699 0.12882377
0.070238717 -0.092089459 0.12875992
0.070866592 -0.092089459 0.12875992
0.071467817 -0.09216699 0.12882377
0.072095469 -0.09216699 0.12882377
0.072668836 -0.092322096 0.12895152
0.073323391 -0.092244551 0.12888765
0.073923208 -0.092322096 0.12895152
0.07452254 -0.092399657 0.1290154
0.066297852 -0.093075126 0.1287642
0.066949122 -0.09299776 0.12870017
0.067626126 -0.092842981 0.12857208
0.068278573 -0.092765585 0.12850803
0.068931475 -0.092688203 0.128444
0.069610827 -0.092533439 0.12831593
0.070264906 -0.092456073 0.1282519
0.070893019 -0.092456073 0.1282519
0.071467817 -0.092610806 0.12837996
0.072122365 -0.092533439 0.12831593
0.072723113 -0.092610806 0.12837996
0.073323391 -0.092688203 0.128444
0.073950805 -0.092688203 0.128444
0.066974156 -0.093363509 0.12819296
0.067626126 -0.093286291 0.12812877
0.068355061 -0.092977419 0.12787196
0.068982944 -0.092977419 0.12787196
0.069662757 -0.092822984 0.12774354
0.070343509 -0.092668533 0.12761512
0.070972323 -0.092668533 0.12761512
0.071601145 -0.092668533 0.12761512
0.072176166 -0.092822984 0.12774354
0.072777376 -0.092900217 0.12780775
0.073378131 -0.092977419 0.12787196
0.073950805 -0.093131855 0.12800035
0.066974156 -0.093806654 0.1277498
0.067676648 -0.093575507 0.1275567
0.068355061 -0.0934214 0.12742797
0.069034405 -0.093267292 0.12729923
0.069688715 -0.093190253 0.12723486
0.070343509 -0.093113184 0.12717049
0.071025193 -0.092959076 0.12704174
0.071681149 -0.092882037 0.12697738
0.072256871 -0.09303613 0.12710613
0.072858788 -0.093113184 0.12717049
0.07343287 -0.093267292 0.12729923
0.074033618 -0.093344361 0.12736361
0.067853481 -0.093480945 0.12666132
0.068533532 -0.09332718 0.12653224
0.069188789 -0.093250275 0.12646769
0.069844507 -0.0931734 0.12640318
0.070553094 -0.092942744 0.12620957
0.071183786 -0.092942744 0.12620957
0.071787819 -0.09301962 0.12627411
0.072310671 -0.09332718 0.12653224
0.072885916 -0.093480945 0.12666132
0.07348761 -0.093557835 0.12672584
0.068106107 -0.093158528 0.12556949
0.068763003 -0.093081817 0.12550482
0.069394626 -0.093081817 0.12550482
0.070052229 -0.093005091 0.12544011
0.070710286 -0.09292838 0.1253754
0.071368814 -0.092851654 0.12531072
0.071974486 -0.09292838 0.1253754
0.072552785 -0.093081817 0.12550482
0.070441693 -0.092303559 0.12402034
0.071077071 -0.092303559 0.12402034
0.071659572 -0.092456669 0.12415007
0.072794899 -0.09283945 0.12447439
0.072072625 -0.09076114 0.12018874
0.072743326 -0.090685084 0.12012337
0.07344117 -0.090532973 0.11999264
0.069748126 -0.090457782 0.11907789
0.070369251 -0.090533674 0.11914341
0.070989907 -0.090609565 0.11920892
0.071610093 -0.090685472 0.11927447
0.072282217 -0.090609565 0.11920892
0.073007658 -0.090381876 0.11901236
0.073681176 -0.090305999 0.11894682
0.069451898 -0.089854807 0.11770093
0.069924966 -0.090384901 0.1181608
0.070522234 -0.090536371 0.11829217
0.071170017 -0.090536371 0.11829217
0.071817815 -0.090536371 0.11829217
0.072413206 -0.090687811 0.11842357
0.073139817 -0.090460643 0.1182265
0.073814519 -0.090384901 0.1181608
0.068520486 -0.089180931 0.11625353
0.069074728 -0.089483172 0.11651693
0.069602057 -0.089861006 0.11684625
0.070101798 -0.090314358 0.1172414
0.070700705 -0.090465471 0.11737311
0.071324393 -0.090541065 0.11743897
0.071947634 -0.090616614 0.11750482
0.072596595 -0.090616614 0.11750482
0.073245555 -0.090616614 0.11750482
0.073921181 -0.090541065 0.11743897
0.068110332 -0.088888988 0.11513123
0.068594173 -0.089416757 0.1155934
0.069149107 -0.089718357 0.1158575
0.069727205 -0.089944541 0.11605556
0.07027863 -0.090246126 0.11631969
0.07085368 -0.090472341 0.11651775
0.07145305 -0.090623111 0.11664979
0.072103426 -0.090623111 0.11664979
0.072727591 -0.09069851 0.11671583
0.073377714 -0.09069851 0.11671583
0.074054524 -0.090623111 0.11664979
0.074704893 -0.090623111 0.11664979
0.068207629 -0.089051768 0.1144028
0.068692401 -0.08957839 0.11486612
0.069223486 -0.089954525 0.11519708
0.069802284 -0.090180218 0.11539564
0.070379682 -0.090405911 0.11559419
0.071006656 -0.090481147 0.1156604
0.071581706 -0.09070684 0.11585897
0.072181314 -0.090857297 0.11599134
0.072832383 -0.090857297 0.11599134
0.07345701 -0.090932548 0.11605754
0.074107848 -0.090932548 0.11605754
0.07478559 -0.090857297 0.11599134
0.068304934 -0.089215845 0.11367302
0.069347449 -0.090041578 0.11440293
0.069952451 -0.090191677 0.11453563
0.070531249 -0.090416893 0.11473471
0.071108639 -0.090642095 0.11493376
0.071736082 -0.090717167 0.11500014
0.072337106 -0.090867266 0.11513284
0.072963379 -0.090942353 0.11519919
0.073589183 -0.09101741 0.11526555
0.07418786 -0.091167539 0.11539826
0.074839398 -0.091167539 0.11539826
0.067743666 -0.089381263 0.11294192
0.068353578 -0.089531049 0.11307496
0.068913437 -0.089830667 0.11334105
0.069471426 -0.09013024 0.11360712
0.070077591 -0.090280041 0.11374018
0.070657551 -0.090504766 0.11393975
0.071261622 -0.090654537 0.11407277
0.071864739 -0.090804338 0.11420581
0.072440952 -0.091029063 0.11440539
0.073041968 -0.091178864 0.11453845
0.073694907 -0.091178864 0.11453845
0.074347854 -0.091178864 0.11453845
0.074973904 -0.091253743 0.11460495
0.067299813 -0.089174315 0.11187606
0.067888215 -0.089398518 0.1120761
0.068426557 -0.08977221 0.11240956
0.069011673 -0.089996397 0.11260961
0.069570594 -0.090295345 0.11287637
0.070177697 -0.090444818 0.11300975
0.070809126 -0.090519547 0.11307642
0.07141459 -0.090669006 0.1132098
0.071967654 -0.090967953 0.11347656
0.072570786 -0.091117397 0.11360991
0.073199168 -0.091192141 0.11367661
0.07382708 -0.09126687 0.11374329
0.074481197 -0.09126687 0.11374329
0.075108409 -0.091341615 0.11380999
0.068008669 -0.089492351 0.11127518
0.068523854 -0.089939758 0.11167631
0.069085352 -0.09023805 0.11194372
0.069694564 -0.090387166 0.1120774
0.070327863 -0.090461731 0.11214426
0.070935436 -0.090610877 0.11227798
0.071516581 -0.090834588 0.11247854
0.072122037 -0.090983734 0.11261223
0.072700605 -0.09120743 0.11281279
0.07330396 -0.091356561 0.11294651
0.073932804 -0.091431141 0.11301337
0.068056852 -0.089811027 0.11067365
0.06859684 -0.090183049 0.11100873
0.069183588 -0.090406269 0.11120979
0.069818534 -0.090480655 0.11127682
0.070402943 -0.09070389 0.11147788
0.071036488 -0.090778291 0.11154489
0.071618564 -0.091001481 0.11174594
0.072199225 -0.0912247 0.11194701
0.072804458 -0.091373518 0.11208105
0.073434956 -0.09144792 0.11214805
0.074064977 -0.091522306 0.11221506
0.068129122 -0.090056151 0.11000428
0.068718463 -0.090278864 0.11020581
0.069281831 -0.090575814 0.11047457
0.069892913 -0.090724304 0.11060894
0.07052809 -0.090798512 0.11067611
0.07108701 -0.091095477 0.11094485
0.071720548 -0.09116973 0.11101204
0.072327882 -0.091318175 0.11114639
0.072960243 -0.091392428 0.11121358
0.073565945 -0.091540903 0.11134796
0.074170701 -0.091689393 0.11148232
0.068249576 -0.090154126 0.10919921
0.068864405 -0.090302259 0.1093339
0.069453746 -0.09052448 0.10953596
0.070066467 -0.090672627 0.10967065
0.070703283 -0.090746686 0.10973799
0.071263842 -0.091042981 0.11000741
0.071848027 -0.091265187 0.11020944
0.072482258 -0.091339275 0.11027679
0.073064104 -0.091561481 0.11047885
0.073670745 -0.091709629 0.11061355
0.068394125 -0.090179831 0.10832496
0.069010362 -0.09032765 0.10845999
0.069601104 -0.09054935 0.10866253
0.070215225 -0.090697169 0.10879757
0.070853442 -0.090771094 0.10886508
0.071415417 -0.091066688 0.10913514
0.072026506 -0.091214508 0.10927017
0.072662368 -0.091288432 0.10933769
0.07319393 -0.091657966 0.10967527
0.068538666 -0.090207532 0.10744873
0.069180638 -0.090281278 0.10751642
0.069822133 -0.090355009 0.10758407
0.070388779 -0.090649977 0.10785481
0.071028642 -0.090723708 0.10792249
0.071566984 -0.091092438 0.1082609
0.072179474 -0.091239914 0.10839626
0.072842479 -0.091239914 0.10839626
0.068087086 -0.090016484 0.10636698
0.068707302 -0.090163648 0.10650267
0.069350913 -0.09023723 0.10657053
0.069944933 -0.090457946 0.10677405
0.070611924 -0.090457946 0.10677405
0.071228862 -0.090605095 0.10690975
0.071844868 -0.090752259 0.10704544
0.07243444 -0.09097296 0.10724898
0.073074058 -0.091046557 0.10731682
0.06827794 -0.08990185 0.10535026
0.068875939 -0.090122074 0.10555428
0.069521189 -0.090195507 0.10562231
0.070165962 -0.09026891 0.1056903
0.070810273 -0.090342298 0.10575831
0.071429089 -0.090489119 0.10589434
0.0720217 -0.090709358 0.1060984
0.072714895 -0.09063594 0.10603037
0.068373367 -0.090082839 0.10460359
0.068996392 -0.090229318 0.10473993
0.069667138 -0.090229318 0.10473993
0.07031332 -0.090302557 0.10480811
0.070983827 -0.090302557 0.10480811
0.071629301 -0.090375811 0.10487629
0.072299577 -0.090375811 0.10487629
0.072918862 -0.090522304 0.10501266
0.073588662 -0.090522304 0.10501266
0.067914762 -0.089899749 0.10351388
0.068516508 -0.09011896 0.10371891
0.069189124 -0.09011896 0.10371891
0.069837414 -0.09019205 0.10378726
0.070485234 -0.090265125 0.10385559
0.071157381 -0.090265125 0.10385559
0.071829528 -0.090265125 0.10385559
0.072501682 -0.090265125 0.10385559
0.073199324 -0.09019205 0.10378726
0.06808012 -0.089865461 0.10255823
0.068707362 -0.090011299 0.10269523
0.069333665 -0.090157107 0.10283226
0.070007689 -0.090157107 0.10283226
0.070657149 -0.090230018 0.10290076
0.071330935 -0.090230018 0.10290076
0.072004721 -0.090230018 0.10290076
0.072678514 -0.090230018 0.10290076
0.0733523 -0.090230018 0.10290076
0.074026078 -0.090230018 0.10290076
0.068198226 -0.089979008 0.10173757
0.068850502 -0.090051726 0.10180625
0.069502302 -0.090124488 0.10187493
0.070177965 -0.090124488 0.10187493
0.070804507 -0.090269968 0.10201228
0.071479701 -0.090269968 0.10201228
0.072154887 -0.090269968 0.10201228
0.072830088 -0.090269968 0.10201228
0.073505282 -0.090269968 0.10201228
0.074180469 -0.090269968 0.10201228
0.068339966 -0.090021595 0.10084644
0.068993635 -0.090094179 0.1009153
0.06964685 -0.090166762 0.10098413
0.070323914 -0.090166762 0.10098413
0.070951864 -0.09031193 0.10112181
0.071603663 -0.090384498 0.10119063
0.072280027 -0.090384498 0.10119063
0.072956391 -0.090384498 0.10119063
0.073632762 -0.090384498 0.10119063
0.074334845 -0.09031193 0.10112181
0.067146979 -0.089993775 0.099884316
0.067802764 -0.09006618 0.099953324
0.06845808 -0.090138614 0.10002233
0.069112927 -0.090211019 0.10009132
0.069767304 -0.090283453 0.10016035
0.070445538 -0.090283453 0.10016035
0.071074657 -0.090428278 0.10029835
0.071727633 -0.090500683 0.10036735
0.072405167 -0.090500683 0.10036735
0.0730827 -0.090500683 0.10036735
0.073760234 -0.090500683 0.10036735
0.074437767 -0.090500683 0.10036735
0.075141266 -0.090428278 0.10029835
0.067239597 -0.090185016 0.099127382
0.067896314 -0.090257287 0.099196553
0.068576187 -0.090257287 0.099196553
0.069232211 -0.090329513 0.099265724
0.06986367 -0.090474024 0.099404067
0.070518523 -0.090546265 0.099473238
0.071197458 -0.090546265 0.099473238
0.071851596 -0.090618521 0.099542424
0.072530299 -0.090618521 0.099542424
0.073183753 -0.090690777 0.099611565
0.073862225 -0.090690777 0.099611565
0.07454069 -0.090690777 0.099611565
0.07524512 -0.090618521 0.099542424
0.067309052 -0.090449676 0.098438472
0.067943089 -0.09059386 0.098577142
0.068623438 -0.09059386 0.098577142
0.069279924 -0.090665936 0.098646462
0.069960035 -0.090665936 0.098646462
0.070615813 -0.090738028 0.098715812
0.071295694 -0.090738028 0.098715812
0.071950771 -0.09081009 0.098785147
0.072630413 -0.09081009 0.098785147
0.073310055 -0.09081009 0.098785147
0.073989704 -0.09081009 0.098785147
0.074669339 -0.09081009 0.098785147
0.075348981 -0.09081009 0.098785147
0.067355365 -0.090787247 0.097818047
0.068036646 -0.090787247 0.097818047
0.068694308 -0.09085916 0.097887546
0.069375351 -0.09085916 0.097887546
0.070056401 -0.09085916 0.097887546
0.070737444 -0.09085916 0.097887546
0.071418494 -0.09085916 0.097887546
0.072074741 -0.090931088 0.09795706
0.072705492 -0.091074929 0.098096073
0.073436365 -0.090931088 0.09795706
0.074066184 -0.091074929 0.098096073
0.074746527 -0.091074929 0.098096073
0.066742845 -0.091053739 0.097127318
0.067424826 -0.091053739 0.097127318
0.068130195 -0.090981975 0.097057641
0.068788789 -0.091053739 0.097127318
0.069470771 -0.091053739 0.097127318
0.07015276 -0.091053739 0.097127318
0.070859075 -0.090981975 0.097057641
0.071541287 -0.090981975 0.097057641
0.072198704 -0.091053739 0.097127318
0.072880685 -0.091053739 0.097127318
0.073512152 -0.091197252 0.097266644
0.074193664 -0.091197252 0.097266644
0.074875176 -0.091197252 0.097266644
0.06685745 -0.091178015 0.096295893
0.067540601 -0.091178015 0.096295893
0.068247139 -0.09110643 0.096226066
0.068930529 -0.09110643 0.096226066
0.069613919 -0.09110643 0.096226066
0.070297301 -0.09110643 0.096226066
0.071005017 -0.091034859 0.096156254
0.071639523 -0.091178015 0.096295893
0.072322682 -0.091178015 0.096295893
0.073005833 -0.091178015 0.096295893
0.073688991 -0.091178015 0.096295893
0.074321151 -0.091321185 0.096435577
0.068364076 -0.091232553 0.095392853
0.069048643 -0.091232553 0.095392853
0.069757059 -0.091161117 0.095322847
0.070417754 -0.091232553 0.095392853
0.071102321 -0.091232553 0.095392853
0.07178688 -0.091232553 0.095392853
0.072471432 -0.091232553 0.095392853
0.073105939 -0.091375396 0.095532864
0.073790029 -0.091375396 0.095532864
0.074474126 -0.091375396 0.095532864
0.068481021 -0.091360331 0.094557986
0.06916675 -0.091360331 0.094557986
0.069876343 -0.091289058 0.094487816
0.070562303 -0.091289058 0.094487816
0.071248271 -0.091289058 0.094487816
0.071909674 -0.091360331 0.094557986
0.072595403 -0.091360331 0.094557986
0.073281132 -0.091360331 0.094557986
0.073916346 -0.091502815 0.094698295
0.074601613 -0.091502815 0.094698295
0.067911066 -0.091489732 0.093721434
0.068621352 -0.091418669 0.093651101
0.06930849 -0.091418669 0.093651101
0.069995627 -0.091418669 0.093651101
0.070706852 -0.091347545 0.093580768
0.071394227 -0.091347545 0.093580768
0.072032474 -0.091489732 0.093721434
0.072744168 -0.091418669 0.093651101
0.073381245 -0.091560841 0.093791768
0.074093178 -0.091489732 0.093721434
0.068073146 -0.091478974 0.092742249
0.068761684 -0.091478974 0.092742249
0.069497474 -0.091337115 0.092601255
0.070210338 -0.091266215 0.092530772
0.070899576 -0.091266215 0.092530772
0.071588822 -0.091266215 0.092530772
0.072204389 -0.091478974 0.092742249
0.072942518 -0.091337115 0.092601255
0.073581465 -0.091478974 0.092742249
0.068281531 -0.091329008 0.091619417
0.068972178 -0.091329008 0.091619417
0.069733694 -0.091116741 0.091407448
0.070377328 -0.091258273 0.091548771
0.071116395 -0.091116741 0.091407448
0.07180775 -0.091116741 0.091407448
0.072425425 -0.091329008 0.091619417
0.073116072 -0.091329008 0.091619417
0.073806718 -0.091329008 0.091619417
0.069159284 -0.09125264 0.090564445
0.069875434 -0.091182038 0.090493605
0.070568189 -0.091182038 0.090493605
0.071260944 -0.091182038 0.090493605
0.071929373 -0.09125264 0.090564445
0.07259734 -0.091323212 0.09063527
0.073314413 -0.09125264 0.090564445
0.074006937 -0.09125264 0.090564445
0.069346391 -0.091178879 0.089506805
0.070064411 -0.091108456 0.089435846
0.070735186 -0.091178879 0.089506805
0.07142958 -0.091178879 0.089506805
0.072123975 -0.091178879 0.089506805
0.072769254 -0.09131974 0.089648798
0.073463179 -0.09131974 0.089648798
0.074157104 -0.09131974 0.089648798
0.070111655 -0.09145911 0.088802338
0.070949897 -0.091037527 0.088375375
0.0716464 -0.091037527 0.088375375
0.072367229 -0.090967268 0.088304237
0.072990283 -0.091178045 0.088517696
0.073636733 -0.091318578 0.088660017
0.070631355 -0.090408474 0.086741701
0.071307741 -0.090478584 0.086813033
0.071959578 -0.090618744 0.086955667
0.072659135 -0.090618744 0.086955667
0.073260441 -0.090899155 0.087240964
0.07030531 -0.089784712 0.085102722
0.07091482 -0.090064436 0.085388675
0.07159403 -0.090134367 0.085460156
0.072200485 -0.090414107 0.085746124
0.072878055 -0.090484008 0.085817605
0.073506027 -0.090693831 0.086032078
0.071198292 -0.089724377 0.084031671
0.071856454 -0.089863911 0.084174976
0.072417304 -0.090282515 0.084604919
0.06951616 -0.088901088 0.082167953
0.070157014 -0.089109898 0.082383409
0.070819855 -0.089249104 0.082527041
0.071529008 -0.089249104 0.082527041
0.072262011 -0.089179501 0.082455248
0.072971396 -0.089179501 0.082455248
0.073705114 -0.089109898 0.082383409
0 0 0 1 0 0 0 1 0 0 0 1 0 0 0 0 0 533 1 0 0
