ply
format ascii 1.0
comment PCL generated
element vertex 551
property float x
property float y
property float z
element camera 1
property float view_px
property float view_py
property float view_pz
property float x_axisx
property float x_axisy
property float x_axisz
property float y_axisx
property float y_axisy
property float y_axisz
property float z_axisx
property float z_axisy
property float z_axisz
property float focal
property float scalex
property float scaley
property float centerx
property float centery
property int viewportx
property int viewporty
property float k1
property float k2
end_header
0.069137327 -0.088509321 0.13149148
0.069766618 -0.088509321 0.13149148
0.070395909 -0.088509321 0.13149148
0.071025193 -0.088509321 0.13149148
0.071601145 -0.088666752 0.13161692
0.067853481 -0.089032859 0.1311094
0.068457045 -0.089111388 0.13117227
0.069085866 -0.089111388 0.13117227
0.069740646 -0.089032859 0.1311094
0.070369706 -0.089032859 0.1311094
0.070972323 -0.089111388 0.13117227
0.071574479 -0.089189947 0.13123517
0.072176166 -0.089268491 0.13129804
0.067149349 -0.089712799 0.13085373
0.067802958 -0.089634418 0.13079068
0.068431549 -0.089634418 0.13079068
0.069085866 -0.089556038 0.13072763
0.069714688 -0.089556038 0.13072763
0.070343509 -0.089556038 0.13072763
0.070972323 -0.089556038 0.13072763
0.071574479 -0.089634418 0.13079068
0.072176166 -0.089712799 0.13085373
0.072777376 -0.089791179 0.13091677
0.073378131 -0.089869559 0.13097982
0.067124315 -0.090235338 0.13047263
0.067777701 -0.090157107 0.13040942
0.068406053 -0.090157107 0.13040942
0.069034405 -0.090157107 0.13040942
0.069662757 -0.090157107 0.13040942
0.070291109 -0.090157107 0.13040942
0.070945889 -0.090078905 0.13034621
0.071521141 -0.090235338 0.13047263
0.072149262 -0.090235338 0.13047263
0.072723113 -0.090391725 0.13059902
0.073323391 -0.090469956 0.13066225
0.073950805 -0.090469956 0.13066225
0.066446617 -0.090835541 0.13015521
0.067074262 -0.090835541 0.13015521
0.067727178 -0.090757519 0.13009186
0.068355061 -0.090757519 0.13009186
0.069008671 -0.090679482 0.13002849
0.069636784 -0.090679482 0.13002849
0.070238717 -0.090757519 0.13009186
0.070893019 -0.090679482 0.13002849
0.071467817 -0.090835541 0.13015521
0.072095469 -0.090835541 0.13015521
0.072723113 -0.090835541 0.13015521
0.073323391 -0.090913609 0.1302186
0.073923208 -0.090991646 0.13028197
0.066421822 -0.091357261 0.12977494
0.067049235 -0.091357261 0.12977494
0.067676648 -0.091357261 0.12977494
0.068329573 -0.091279358 0.12971139
0.068957217 -0.091279358 0.12971139
0.069584869 -0.091279358 0.12971139
0.070238717 -0.091201499 0.12964788
0.070866592 -0.091201499 0.12964788
0.071467817 -0.091279358 0.12971139
0.072095469 -0.091279358 0.12971139
0.072695971 -0.091357261 0.12977494
0.073296025 -0.091435134 0.12983848
0.073923208 -0.091435134 0.12983848
0.074550383 -0.091435134 0.12983848
0.066372231 -0.091956347 0.12945871
0.067024209 -0.091878608 0.12939501
0.067651391 -0.091878608 0.12939501
0.068278573 -0.091878608 0.12939501
0.068931475 -0.091800898 0.12933129
0.069584869 -0.091723174 0.12926759
0.070212521 -0.091723174 0.12926759
0.070840165 -0.091723174 0.12926759
0.071441144 -0.091800898 0.12933129
0.072068557 -0.091800898 0.12933129
0.072695971 -0.091800898 0.12933129
0.073296025 -0.091878608 0.12939501
0.073923208 -0.091878608 0.12939501
0.074550383 -0.091878608 0.12939501
0.066372231 -0.092399657 0.1290154
0.066999175 -0.092399657 0.1290154
0.067651391 -0.092322096 0.12895152
0.068278573 -0.092322096 0.12895152
0.068905748 -0.092322096 0.12895152
0.069584869 -0.09216699 0.12882377
0.070212521 -0.09216699 0.12882377
0.070840165 -0.09216699 0.12882377
0.071467817 -0.09216699 0.12882377
0.072068557 -0.092244551 0.12888765
0.072695971 -0.092244551 0.12888765
0.073296025 -0.092322096 0.12895152
0.073923208 -0.092322096 0.12895152
0.074550383 -0.092322096 0.12895152
0.066999175 -0.092842981 0.12857208
0.067626126 -0.092842981 0.12857208
0.068278573 -0.092765585 0.12850803
0.068905748 -0.092765585 0.12850803
0.069584869 -0.092610806 0.12837996
0.070212521 -0.092610806 0.12837996
0.070840165 -0.092610806 0.12837996
0.071494475 -0.092533439 0.12831593
0.072095469 -0.092610806 0.12837996
0.072668836 -0.092765585 0.12850803
0.073296025 -0.092765585 0.12850803
0.073950805 -0.092688203 0.128444
0.074550383 -0.092765585 0.12850803
0.066999175 -0.093286291 0.12812877
0.067626126 -0.093286291 0.12812877
0.068304069 -0.093131855 0.12800035
0.068957217 -0.093054622 0.12793614
0.069584869 -0.093054622 0.12793614
0.070264906 -0.092900217 0.12780775
0.070893019 -0.092900217 0.12780775
0.071494475 -0.092977419 0.12787196
0.072122365 -0.092977419 0.12787196
0.072723113 -0.093054622 0.12793614
0.073350765 -0.093054622 0.12793614
0.073950805 -0.093131855 0.12800035
0.067676648 -0.093575507 0.1275567
0.068380557 -0.093344361 0.12736361
0.069034405 -0.093267292 0.12729923
0.069662757 -0.093267292 0.12729923
0.070291109 -0.093267292 0.12729923
0.070919462 -0.093267292 0.12729923
0.071547814 -0.093267292 0.12729923
0.072149262 -0.093344361 0.12736361
0.072750241 -0.0934214 0.12742797
0.073378131 -0.0934214 0.12742797
0.073978417 -0.093498439 0.12749232
0.06790401 -0.09332718 0.12653224
0.068457045 -0.093557835 0.12672584
0.069163054 -0.09332718 0.12653224
0.069792576 -0.09332718 0.12653224
0.070448309 -0.093250275 0.12646769
0.07105162 -0.09332718 0.12653224
0.071654484 -0.093404055 0.12659676
0.072203062 -0.093634725 0.12679039
0.072804518 -0.093711615 0.12685493
0.073405497 -0.093788505 0.12691946
0.06942036 -0.093005091 0.12544011
0.070026256 -0.093081817 0.12550482
0.070657894 -0.093081817 0.12550482
0.07126309 -0.093158528 0.12556949
0.071867816 -0.093235269 0.12563421
0.07241828 -0.093465418 0.12582831
0.070140801 -0.091308311 0.12317708
0.070623443 -0.091767669 0.12356628
0.070998475 -0.092533216 0.12421492
0.071500987 -0.092915997 0.12453926
0.072107822 -0.092992559 0.12460414
0.072687291 -0.093145669 0.12473385
0.071705841 -0.090919465 0.12201031
0.072108939 -0.091606975 0.12259559
0.070655413 -0.090686694 0.12097028
0.0701143 -0.090837181 0.12025408
0.070809789 -0.090685084 0.12012337
0.071454301 -0.090685084 0.12012337
0.072098814 -0.090685084 0.12012337
0.072769761 -0.090609014 0.120058
0.073387839 -0.090685084 0.12012337
0.069621816 -0.09083724 0.11940552
0.070267268 -0.09083724 0.11940552
0.070938446 -0.090761334 0.11933997
0.071584128 -0.090761334 0.11933997
0.072256014 -0.090685472 0.11927447
0.072901927 -0.090685472 0.11927447
0.07354784 -0.090685472 0.11927447
0.074220672 -0.090609565 0.11920892
0.069151558 -0.090763554 0.11848927
0.069773391 -0.090839282 0.11855495
0.07042025 -0.090839282 0.11855495
0.071092822 -0.090763554 0.11848927
0.071687981 -0.090915009 0.11862066
0.072308414 -0.090990737 0.11868635
0.072981216 -0.090915009 0.11862066
0.073627844 -0.090915009 0.11862066
0.074301369 -0.090839282 0.11855495
0.069326751 -0.090692177 0.1175707
0.06997548 -0.090692177 0.1175707
0.07062421 -0.090692177 0.1175707
0.071247205 -0.090767741 0.11763655
0.071895704 -0.090767741 0.11763655
0.072518006 -0.09084329 0.11770241
0.073139817 -0.090918869 0.11776827
0.073787846 -0.090918869 0.11776827
0.074435875 -0.090918869 0.11776827
0.075083897 -0.090918869 0.11776827
0.068950757 -0.090321541 0.11638571
0.069501951 -0.090623111 0.11664979
0.07015232 -0.090623111 0.11664979
0.070777193 -0.09069851 0.11671583
0.071401589 -0.09077391 0.11678185
0.071999565 -0.090924695 0.11691388
0.072622791 -0.09100011 0.11697993
0.073245555 -0.091075495 0.11704594
0.073867843 -0.091150895 0.11711198
0.074516572 -0.091150895 0.11711198
0.069049932 -0.090481147 0.1156604
0.069602057 -0.090782076 0.11592516
0.070253365 -0.090782076 0.11592516
0.070879176 -0.090857297 0.11599134
0.071504503 -0.090932548 0.11605754
0.072129384 -0.091007754 0.11612374
0.072753794 -0.09108299 0.11618991
0.073377714 -0.091158226 0.11625612
0.074001186 -0.091233462 0.11632229
0.074597284 -0.091383904 0.11645468
0.075246707 -0.091383904 0.11645468
0.068594173 -0.090341821 0.11466834
0.069173895 -0.090567023 0.11486742
0.06977725 -0.090717167 0.11500014
0.070404939 -0.090792209 0.11506648
0.071057647 -0.090792209 0.11506648
0.071633168 -0.09101741 0.11526555
0.072233245 -0.091167539 0.11539826
0.072832383 -0.091317669 0.11553097
0.07345701 -0.091392756 0.11559734
0.074107848 -0.091392756 0.11559734
0.07473179 -0.091467813 0.11566368
0.068766087 -0.090280041 0.11374018
0.069322661 -0.090579659 0.11400625
0.069952451 -0.090654537 0.11407277
0.070581771 -0.090729445 0.1141393
0.071185127 -0.090879261 0.11427234
0.071761817 -0.091103956 0.1144719
0.072389022 -0.091178864 0.11453845
0.072989583 -0.091328636 0.11467147
0.073615611 -0.091403559 0.11473799
0.074241191 -0.091478452 0.11480451
0.074839398 -0.091628253 0.11493756
0.06888888 -0.090370074 0.11294305
0.069496214 -0.090519547 0.11307642
0.070127644 -0.090594262 0.1131431
0.070733346 -0.090743735 0.11327648
0.071312606 -0.090967953 0.11347656
0.0719162 -0.091117397 0.11360991
0.072518855 -0.09126687 0.11374329
0.073094368 -0.091491088 0.11394337
0.073721342 -0.091565818 0.11401004
0.074374527 -0.091565818 0.11401004
0.069036238 -0.090387166 0.1120774
0.06964498 -0.090536296 0.11221112
0.07027781 -0.090610877 0.11227798
0.070859656 -0.090834588 0.11247854
0.071465589 -0.090983734 0.11261223
0.072070576 -0.091132864 0.11274594
0.072648674 -0.091356561 0.11294651
0.07325156 -0.091505706 0.1130802
0.073879942 -0.091580257 0.11314705
0.074507862 -0.091654837 0.11321391
0.068523854 -0.090406269 0.11120979
0.069109917 -0.090629473 0.11141086
0.069768943 -0.090629473 0.11141086
0.070377916 -0.090778291 0.11154489
0.071036488 -0.090778291 0.11154489
0.071593069 -0.091075897 0.11181296
0.072199225 -0.0912247 0.11194701
0.072804458 -0.091373518 0.11208105
0.073434956 -0.09144792 0.11214805
0.074038535 -0.091596708 0.1122821
0.068669811 -0.090427339 0.11034019
0.069257274 -0.090650052 0.11054173
0.069892913 -0.090724304 0.11060894
0.07052809 -0.090798512 0.11067611
0.07116279 -0.090872765 0.1107433
0.071720548 -0.09116973 0.11101204
0.072302148 -0.091392428 0.11121358
0.072934285 -0.091466665 0.11128075
0.073565945 -0.091540903 0.11134796
0.074170701 -0.091689393 0.11148232
0.068840086 -0.090376332 0.10940126
0.069453746 -0.09052448 0.10953596
0.070066467 -0.090672627 0.10967065
0.070678249 -0.09082076 0.10980535
0.071314365 -0.090894833 0.1098727
0.071873523 -0.091191128 0.11014211
0.072482258 -0.091339275 0.11027679
0.073116034 -0.091413334 0.11034414
0.068418212 -0.090105921 0.10825744
0.069034688 -0.090253726 0.10839248
0.069674775 -0.09032765 0.10845999
0.070240021 -0.090623289 0.10873005
0.070878476 -0.090697169 0.10879757
0.071491197 -0.090844989 0.1089326
0.072026506 -0.091214508 0.10927017
0.072636642 -0.091362327 0.1094052
0.073245853 -0.091510147 0.10954024
0.073880337 -0.091584057 0.10960773
0.068586849 -0.09006004 0.10731336
0.069229282 -0.090133786 0.10738105
0.069871254 -0.090207532 0.10744873
0.07043837 -0.090502486 0.10771945
0.071078695 -0.090576246 0.10778713
0.071668029 -0.090797469 0.10799018
0.072230466 -0.091092438 0.1082609
0.072868221 -0.091166154 0.10832858
0.073479541 -0.091313645 0.10846394
0.067607664 -0.089427888 0.1058242
0.068182513 -0.089722201 0.10609561
0.068827756 -0.089795783 0.10616343
0.069399558 -0.090090081 0.10643482
0.070018604 -0.09023723 0.10657053
0.070661515 -0.090310797 0.10663836
0.071253896 -0.090531513 0.10684189
0.071870133 -0.090678662 0.10697758
0.07243444 -0.09097296 0.10724898
0.073074058 -0.091046557 0.10731682
0.073713221 -0.091120124 0.10738467
0.067702159 -0.089608222 0.10507821
0.068301797 -0.089828432 0.10528223
0.068948209 -0.08990185 0.10535026
0.069545515 -0.090122074 0.10555428
0.070190519 -0.090195507 0.10562231
0.070810273 -0.090342298 0.10575831
0.071404055 -0.090562537 0.10596237
0.0720217 -0.090709358 0.1060984
0.072663903 -0.090782762 0.10616638
0.073920935 -0.091002986 0.10637042
0.067241438 -0.089423642 0.10398999
0.067820273 -0.089716613 0.10426269
0.068444937 -0.089863107 0.10439906
0.069044575 -0.090082839 0.10460359
0.069667138 -0.090229318 0.10473993
0.070337877 -0.090229318 0.10473993
0.070983827 -0.090302557 0.10480811
0.071579248 -0.090522304 0.10501266
0.072198533 -0.090668797 0.10514902
0.072842374 -0.090742037 0.10521717
0.074102685 -0.090961754 0.10542171
0.066730201 -0.089388192 0.10303549
0.0673116 -0.089680508 0.10330886
0.067962006 -0.089753583 0.10337719
0.068564221 -0.089972809 0.1035822
0.069189124 -0.09011896 0.10371891
0.069837414 -0.09019205 0.10378726
0.070485234 -0.090265125 0.10385559
0.071132585 -0.090338215 0.10392395
0.071729414 -0.090557456 0.10412897
0.07240063 -0.090557456 0.10412897
0.073071845 -0.090557456 0.10412897
0.073691584 -0.090703592 0.10426566
0.066169843 -0.089500904 0.10221568
0.066799663 -0.089646727 0.10235269
0.067428552 -0.089792535 0.10248971
0.06808012 -0.089865461 0.10255823
0.068707362 -0.090011299 0.10269523
0.069381848 -0.090011299 0.10269523
0.069959037 -0.090302944 0.10296927
0.070657149 -0.090230018 0.10290076
0.071306139 -0.090302944 0.10296927
0.071954668 -0.090375856 0.10303777
0.072602727 -0.090448752 0.10310628
0.073275812 -0.090448752 0.10310628
0.073897429 -0.090594575 0.10324329
0.074570052 -0.090594575 0.10324329
0.066192769 -0.089906231 0.10166889
0.066869132 -0.089906231 0.10166889
0.067522101 -0.089979008 0.10173757
0.068150982 -0.090124488 0.10187493
0.068826646 -0.090124488 0.10187493
0.069502302 -0.090124488 0.10187493
0.07012932 -0.090269968 0.10201228
0.070804507 -0.090269968 0.10201228
0.071454905 -0.09034273 0.10208096
0.072104834 -0.090415463 0.10214961
0.072779559 -0.090415463 0.10214961
0.073454283 -0.090415463 0.10214961
0.074129 -0.090415463 0.10214961
0.065629832 -0.090021595 0.10084644
0.066261522 -0.090166762 0.10098413
0.066938587 -0.090166762 0.10098413
0.067568876 -0.09031193 0.10112181
0.068292722 -0.090166762 0.10098413
0.068898216 -0.090384498 0.10119063
0.06957458 -0.090384498 0.10119063
0.070275269 -0.09031193 0.10112181
0.070927307 -0.090384498 0.10119063
0.071603663 -0.090384498 0.10119063
0.072254993 -0.090457097 0.10125948
0.072905868 -0.090529665 0.10132831
0.073581763 -0.090529665 0.10132831
0.074257657 -0.090529665 0.10132831
0.065697886 -0.090283453 0.10016035
0.066330284 -0.090428278 0.10029835
0.067008048 -0.090428278 0.10029835
0.067732595 -0.090283453 0.10016035
0.068363585 -0.090428278 0.10029835
0.069041356 -0.090428278 0.10029835
0.069719121 -0.090428278 0.10029835
0.070396893 -0.090428278 0.10029835
0.071074657 -0.090428278 0.10029835
0.071727633 -0.090500683 0.10036735
0.072380133 -0.090573102 0.10043637
0.073057435 -0.090573102 0.10043637
0.073734738 -0.090573102 0.10043637
0.074412033 -0.090573102 0.10043637
0.065720573 -0.090690777 0.099611565
0.066399045 -0.090690777 0.099611565
0.067077518 -0.090690777 0.099611565
0.067755982 -0.090690777 0.099611565
0.06845808 -0.090618521 0.099542424
0.069136783 -0.090618521 0.099542424
0.069815487 -0.090618521 0.099542424
0.07049419 -0.090618521 0.099542424
0.071172893 -0.090618521 0.099542424
0.071851596 -0.090618521 0.099542424
0.07250528 -0.090690777 0.099611565
0.073183753 -0.090690777 0.099611565
0.073862225 -0.090690777 0.099611565
0.07454069 -0.090690777 0.099611565
0.065765947 -0.091026351 0.098993152
0.066444889 -0.091026351 0.098993152
0.067123823 -0.091026351 0.098993152
0.067826152 -0.090954274 0.098923817
0.068505324 -0.090954274 0.098923817
0.069232211 -0.09081009 0.098785147
0.069911852 -0.09081009 0.098785147
0.070591494 -0.09081009 0.098785147
0.071295694 -0.090738028 0.098715812
0.071950771 -0.09081009 0.098785147
0.072630413 -0.09081009 0.098785147
0.073310055 -0.09081009 0.098785147
0.073989704 -0.09081009 0.098785147
0.074669339 -0.09081009 0.098785147
0.065788627 -0.091434523 0.098443568
0.066467807 -0.091434523 0.098443568
0.067193285 -0.091290668 0.09830457
0.067896314 -0.09121877 0.098235071
0.068576187 -0.09121877 0.098235071
0.069279924 -0.091146842 0.098165557
0.069984123 -0.091074929 0.098096073
0.070713118 -0.090931088 0.09795706
0.071393929 -0.090931088 0.09795706
0.072074741 -0.090931088 0.09795706
0.072755553 -0.090931088 0.09795706
0.073436365 -0.090931088 0.09795706
0.074066184 -0.091074929 0.098096073
0.074797988 -0.090931088 0.09795706
0.065879375 -0.091627762 0.097684637
0.066582404 -0.091556013 0.097614989
0.067262746 -0.091556013 0.097614989
0.067989863 -0.0914125 0.097475648
0.068694308 -0.091340736 0.09740597
0.069399208 -0.091268986 0.097336307
0.070104577 -0.091197252 0.097266644
0.070786089 -0.091197252 0.097266644
0.071516722 -0.091053739 0.097127318
0.072198704 -0.091053739 0.097127318
0.072880685 -0.091053739 0.097127318
0.073587939 -0.090981975 0.097057641
0.074244663 -0.091053739 0.097127318
0.074952371 -0.090981975 0.097057641
0.066674083 -0.091750711 0.096854568
0.067378514 -0.091679156 0.096784741
0.068106808 -0.091535971 0.096645087
0.068812415 -0.09146437 0.096575245
0.069518492 -0.091392785 0.096505418
0.07022503 -0.091321185 0.096435577
0.070907719 -0.091321185 0.096435577
0.071590409 -0.091321185 0.096435577
0.072322682 -0.091178015 0.096295893
0.073005833 -0.091178015 0.096295893
0.073714249 -0.09110643 0.096226066
0.074397638 -0.09110643 0.096226066
0.067494288 -0.091803923 0.095952839
0.068223752 -0.091661066 0.095812842
0.068930529 -0.091589659 0.095742837
0.069637768 -0.091518253 0.095672861
0.070369571 -0.091375396 0.095532864
0.071102321 -0.091232553 0.095392853
0.071737759 -0.091375396 0.095532864
0.072471432 -0.091232553 0.095392853
0.073181026 -0.091161117 0.095322847
0.073840559 -0.091232553 0.095392853
0.074525118 -0.091232553 0.095392853
0.068364076 -0.091716602 0.094908804
0.069072269 -0.091645345 0.094838619
0.069804773 -0.091502815 0.094698295
0.070538208 -0.091360331 0.094557986
0.071248271 -0.091289058 0.094487816
0.071934238 -0.091289058 0.094487816
0.072620198 -0.091289058 0.094487816
0.073306166 -0.091289058 0.094487816
0.074017391 -0.091217816 0.094417647
0.067818448 -0.091774121 0.094002753
0.068527795 -0.091703027 0.093932435
0.069261245 -0.091560841 0.093791768
0.06997177 -0.091489732 0.093721434
0.070682757 -0.091418669 0.093651101
0.071369894 -0.091418669 0.093651101
0.072057031 -0.091418669 0.093651101
0.072744168 -0.091418669 0.093651101
0.073456332 -0.091347545 0.093580768
0.0741437 -0.091347545 0.093580768
0.068049982 -0.091549918 0.092812747
0.068761684 -0.091478974 0.092742249
0.069521092 -0.091266215 0.092530772
0.070210338 -0.091266215 0.092530772
0.070923671 -0.091195285 0.092460245
0.071588822 -0.091266215 0.092530772
0.07225351 -0.091337115 0.092601255
0.072967306 -0.091266215 0.092530772
0.073656552 -0.091266215 0.092530772
0.07432054 -0.091337115 0.092601255
0.069065735 -0.091045976 0.091336772
0.06975732 -0.091045976 0.091336772
0.070472762 -0.09097521 0.091266125
0.07114049 -0.091045976 0.091336772
0.07180775 -0.091116741 0.091407448
0.072499096 -0.091116741 0.091407448
0.073190451 -0.091116741 0.091407448
0.073881797 -0.091116741 0.091407448
0.074573152 -0.091116741 0.091407448
0.069276229 -0.090899646 0.090210304
0.069969922 -0.090899646 0.090210304
0.070663616 -0.090899646 0.090210304
0.071285032 -0.091111436 0.090422809
0.071978025 -0.091111436 0.090422809
0.072671011 -0.091111436 0.090422809
0.073364004 -0.091111436 0.090422809
0.07405699 -0.091111436 0.090422809
0.069463328 -0.090826735 0.089151859
0.070111655 -0.090967596 0.089293852
0.070854463 -0.090826735 0.089151859
0.071477763 -0.091038018 0.089364842
0.072148301 -0.091108456 0.089435846
0.072842926 -0.091108456 0.089435846
0.073537558 -0.091108456 0.089435846
0.070300639 -0.090896994 0.088233069
0.07102146 -0.090826735 0.088161916
0.07171867 -0.090826735 0.088161916
0.072415873 -0.090826735 0.088161916
0.073113084 -0.090826735 0.088161916
0.073785499 -0.090896994 0.088233069
0.070702218 -0.090198174 0.086527735
0.071307741 -0.090478584 0.086813033
0.071959578 -0.090618744 0.086955667
0.072683454 -0.090548664 0.08688435
0.073358677 -0.090618744 0.086955667
0.073983841 -0.090829059 0.087169647
0.070962064 -0.089924589 0.085245684
0.071570165 -0.090204298 0.085531667
0.072200485 -0.090414107 0.085746124
0.072902381 -0.090414107 0.085746124
0.073579714 -0.090484008 0.085817605
0.071198292 -0.089724377 0.084031671
0.07180874 -0.090003446 0.08431828
0.072465487 -0.09014298 0.0844616
0.073072657 -0.090422049 0.084748223
0.072190441 -0.089388296 0.082670689
0.07287503 -0.089457914 0.082742527
0.073583476 -0.089457914 0.082742527
0.074267372 -0.089527503 0.082814336
0 0 0 1 0 0 0 1 0 0 0 1 0 0 0 0 0 551 1 0 0
