ply
format ascii 1.0
comment PCL generated
element vertex 538
property float x
property float y
property float z
element camera 1
property float view_px
property float view_py
property float view_pz
property float x_axisx
property float x_axisy
property float x_axisz
property float y_axisx
property float y_axisy
property float y_axisz
property float z_axisx
property float z_axisy
property float z_axisz
property float focal
property float scalex
property float scaley
property float centerx
property float centery
property int viewportx
property int viewporty
property float k1
property float k2
end_header
0.068380557 -0.088902891 0.13180508
0.069034405 -0.088824168 0.13174236
0.069662757 -0.088824168 0.13174236
0.070291109 -0.088824168 0.13174236
0.070919462 -0.088824168 0.13174236
0.067701921 -0.089504093 0.13148665
0.068355061 -0.089425579 0.1314238
0.069008671 -0.089347035 0.13136092
0.069636784 -0.089347035 0.13136092
0.070264906 -0.089347035 0.13136092
0.070893019 -0.089347035 0.13136092
0.071521141 -0.089347035 0.13136092
0.072149262 -0.089347035 0.13136092
0.067024209 -0.090104669 0.13116893
0.067676648 -0.090026304 0.1311059
0.068329573 -0.089947909 0.13104284
0.068982944 -0.089869559 0.13097982
0.069636784 -0.089791179 0.13091677
0.070264906 -0.089791179 0.13091677
0.070893019 -0.089791179 0.13091677
0.071494475 -0.089869559 0.13097982
0.072122365 -0.089869559 0.13097982
0.072723113 -0.089947909 0.13104284
0.073323391 -0.090026304 0.1311059
0.066372231 -0.090626389 0.13078867
0.067024209 -0.090548158 0.13072546
0.067651391 -0.090548158 0.13072546
0.068304069 -0.090469956 0.13066225
0.068957217 -0.090391725 0.13059902
0.069584869 -0.090391725 0.13059902
0.070212521 -0.090391725 0.13059902
0.070866592 -0.090313539 0.13053584
0.071494475 -0.090313539 0.13053584
0.072122365 -0.090313539 0.13053584
0.072723113 -0.090391725 0.13059902
0.073296025 -0.090548158 0.13072546
0.073923208 -0.090548158 0.13072546
0.06572073 -0.091147751 0.13040872
0.066347443 -0.091147751 0.13040872
0.066999175 -0.091069698 0.13034534
0.067651391 -0.090991646 0.13028197
0.068278573 -0.090991646 0.13028197
0.068931475 -0.090913609 0.1302186
0.069584869 -0.090835541 0.13015521
0.070238717 -0.090757519 0.13009186
0.070866592 -0.090757519 0.13009186
0.071467817 -0.090835541 0.13015521
0.072095469 -0.090835541 0.13015521
0.072668836 -0.090991646 0.13028197
0.073323391 -0.090913609 0.1302186
0.073895596 -0.091069698 0.13034534
0.065696165 -0.091668785 0.13002911
0.066347443 -0.091590896 0.12996557
0.066974156 -0.091590896 0.12996557
0.067626126 -0.091513023 0.12990203
0.068278573 -0.091435134 0.12983848
0.068905748 -0.091435134 0.12983848
0.069558896 -0.091357261 0.12977494
0.070212521 -0.091279358 0.12971139
0.070866592 -0.091201499 0.12964788
0.071441144 -0.091357261 0.12977494
0.072095469 -0.091279358 0.12971139
0.072668836 -0.091435134 0.12983848
0.073296025 -0.091435134 0.12983848
0.073895596 -0.091513023 0.12990203
0.074494705 -0.091590896 0.12996557
0.065671608 -0.092189491 0.12964983
0.066322647 -0.092111781 0.12958613
0.066949122 -0.092111781 0.12958613
0.067600869 -0.092034042 0.12952241
0.068253078 -0.091956347 0.12945871
0.068905748 -0.091878608 0.12939501
0.069558896 -0.091800898 0.12933129
0.070212521 -0.091723174 0.12926759
0.070840165 -0.091723174 0.12926759
0.071467817 -0.091723174 0.12926759
0.072068557 -0.091800898 0.12933129
0.072668836 -0.091878608 0.12939501
0.073296025 -0.091878608 0.12939501
0.073923208 -0.091878608 0.12939501
0.07452254 -0.091956347 0.12945871
0.065647043 -0.092709869 0.1292709
0.066297852 -0.092632309 0.12920702
0.066949122 -0.092554763 0.12914315
0.067600869 -0.092477202 0.12907927
0.068253078 -0.092399657 0.1290154
0.068905748 -0.092322096 0.12895152
0.069558896 -0.092244551 0.12888765
0.070212521 -0.09216699 0.12882377
0.070866592 -0.092089459 0.12875992
0.071467817 -0.09216699 0.12882377
0.072068557 -0.092244551 0.12888765
0.072695971 -0.092244551 0.12888765
0.073296025 -0.092322096 0.12895152
0.073923208 -0.092322096 0.12895152
0.074550383 -0.092322096 0.12895152
0.066297852 -0.093075126 0.1287642
0.066974156 -0.092920363 0.12863611
0.067600869 -0.092920363 0.12863611
0.068278573 -0.092765585 0.12850803
0.068905748 -0.092765585 0.12850803
0.069584869 -0.092610806 0.12837996
0.070238717 -0.092533439 0.12831593
0.070840165 -0.092610806 0.12837996
0.071494475 -0.092533439 0.12831593
0.072122365 -0.092533439 0.12831593
0.072695971 -0.092688203 0.128444
0.073323391 -0.092688203 0.128444
0.073950805 -0.092688203 0.128444
0.074550383 -0.092765585 0.12850803
0.066949122 -0.093440741 0.12825717
0.067651391 -0.093209058 0.12806454
0.068304069 -0.093131855 0.12800035
0.068957217 -0.093054622 0.12793614
0.069610827 -0.092977419 0.12787196
0.070264906 -0.092900217 0.12780775
0.070919462 -0.092822984 0.12774354
0.071521141 -0.092900217 0.12780775
0.072149262 -0.092900217 0.12780775
0.072750241 -0.092977419 0.12787196
0.073350765 -0.093054622 0.12793614
0.073923208 -0.093209058 0.12806454
0.066999175 -0.093729615 0.12768544
0.067626126 -0.093729615 0.12768544
0.068329573 -0.093498439 0.12749232
0.069085866 -0.093113184 0.12717049
0.069688715 -0.093190253 0.12723486
0.070343509 -0.093113184 0.12717049
0.070919462 -0.093267292 0.12729923
0.071601145 -0.093113184 0.12717049
0.072229974 -0.093113184 0.12717049
0.072804518 -0.093267292 0.12729923
0.073405497 -0.093344361 0.12736361
0.073978417 -0.093498439 0.12749232
0.067701921 -0.093942255 0.12704851
0.068508044 -0.093404055 0.12659676
0.069265977 -0.09301962 0.12627411
0.069922395 -0.092942744 0.12620957
0.070448309 -0.093250275 0.12646769
0.071183786 -0.092942744 0.12620957
0.071734481 -0.0931734 0.12640318
0.072283775 -0.093404055 0.12659676
0.072858788 -0.093557835 0.12672584
0.073460236 -0.093634725 0.12679039
0.068763003 -0.093081817 0.12550482
0.06942036 -0.093005091 0.12544011
0.070052229 -0.093005091 0.12544011
0.070736483 -0.092851654 0.12531072
0.071342386 -0.09292838 0.1253754
0.07194782 -0.093005091 0.12544011
0.073624454 -0.09361887 0.12595771
0.069145441 -0.092380106 0.12408519
0.06972912 -0.092533216 0.12421492
0.070311867 -0.092686325 0.12434466
0.070893683 -0.09283945 0.12447439
0.071686015 -0.092380106 0.12408519
0.07234782 -0.092303559 0.12402034
0.070166528 -0.091683373 0.12266064
0.070883088 -0.091454193 0.12246552
0.071496248 -0.091530591 0.12253056
0.07205607 -0.091759741 0.12272564
0.0727745 -0.091530591 0.12253056
0.070475303 -0.09122026 0.12142666
0.071116768 -0.09122026 0.12142666
0.071679637 -0.091448948 0.12162226
0.072399698 -0.09122026 0.12142666
0.073067836 -0.09114404 0.12136146
0.070655413 -0.091141433 0.12051554
0.071298517 -0.091141433 0.12051554
0.071941629 -0.091141433 0.12051554
0.072611161 -0.091065377 0.12045018
0.069495507 -0.091216713 0.11973315
0.070139788 -0.091216713 0.11973315
0.070784062 -0.091216713 0.11973315
0.071454301 -0.091140836 0.11966763
0.072098814 -0.091140836 0.11966763
0.072716892 -0.091216713 0.11973315
0.073387839 -0.091140836 0.11966763
0.074059255 -0.09106493 0.1196021
0.069051452 -0.091066465 0.11875202
0.069697611 -0.091066465 0.11875202
0.070318259 -0.091142192 0.11881775
0.070964172 -0.091142192 0.11881775
0.071610093 -0.091142192 0.11881775
0.072229818 -0.091217905 0.11888342
0.072849058 -0.091293648 0.11894912
0.073494509 -0.091293648 0.11894912
0.07413996 -0.091293648 0.11894912
0.069226645 -0.090994418 0.11783411
0.069874443 -0.090994418 0.11783411
0.070471242 -0.091145545 0.11796583
0.071092822 -0.091221109 0.11803171
0.071739912 -0.091221109 0.11803171
0.072334602 -0.091372252 0.11816342
0.073007658 -0.091296673 0.11809756
0.07365451 -0.091296673 0.11809756
0.074274465 -0.091372252 0.11816342
0.069401838 -0.090924695 0.11691388
0.070051275 -0.090924695 0.11691388
0.070675202 -0.09100011 0.11697993
0.071272932 -0.091150895 0.11711198
0.071895704 -0.091226295 0.11717799
0.072518006 -0.09130168 0.11724402
0.073139817 -0.091377094 0.11731005
0.07376118 -0.091452479 0.11737606
0.074408978 -0.091452479 0.11737606
0.075056762 -0.091452479 0.11737606
0.068925969 -0.090857297 0.11599134
0.069552004 -0.090932548 0.11605754
0.070177577 -0.091007754 0.11612374
0.070802689 -0.09108299 0.11618991
0.071427315 -0.091158226 0.11625612
0.071999565 -0.091383904 0.11645468
0.072596595 -0.091534376 0.11658706
0.073245555 -0.091534376 0.11658706
0.073867843 -0.091609612 0.11665326
0.074489675 -0.091684848 0.11671944
0.069074728 -0.090867266 0.11513284
0.069702171 -0.090942353 0.11519919
0.070329152 -0.09101741 0.11526555
0.070904672 -0.091242626 0.11546463
0.071504503 -0.091392756 0.11559734
0.072155342 -0.091392756 0.11559734
0.072727591 -0.091617942 0.1157964
0.073377714 -0.091617942 0.1157964
0.073947854 -0.091843128 0.11599545
0.074597284 -0.091843128 0.11599545
0.068594173 -0.090804338 0.11420581
0.069173895 -0.091029063 0.11440539
0.069802284 -0.091103956 0.1144719
0.070455462 -0.091103956 0.1144719
0.071057647 -0.091253743 0.11460495
0.071658894 -0.091403559 0.11473799
0.072233245 -0.091628253 0.11493756
0.072832383 -0.09177804 0.1150706
0.07345701 -0.091852963 0.11513713
0.074054524 -0.092002749 0.11527015
0.068766087 -0.090743735 0.11327648
0.069372252 -0.090893209 0.11340986
0.070002504 -0.090967953 0.11347656
0.070607036 -0.091117397 0.11360991
0.07121063 -0.09126687 0.11374329
0.071787544 -0.091491088 0.11394337
0.072414994 -0.091565818 0.11401004
0.072963379 -0.09186475 0.1142768
0.073589183 -0.091939479 0.11434346
0.06888888 -0.090834588 0.11247854
0.069521002 -0.090909168 0.1125454
0.07015267 -0.090983734 0.11261223
0.070758604 -0.091132864 0.11274594
0.07133811 -0.091356561 0.11294651
0.071941927 -0.091505706 0.1130802
0.072544813 -0.091654837 0.11321391
0.073094368 -0.091953129 0.11348133
0.073721342 -0.092027694 0.11354816
0.069036238 -0.090852663 0.1116119
0.069669768 -0.090927079 0.11167893
0.07027781 -0.091075897 0.11181296
0.070884913 -0.0912247 0.11194701
0.071491078 -0.091373518 0.11208105
0.072096311 -0.091522306 0.11221506
0.072700605 -0.091671109 0.11234911
0.073277757 -0.091894343 0.11255017
0.073879942 -0.092043117 0.11268419
0.069183588 -0.090872765 0.1107433
0.069843322 -0.090872765 0.1107433
0.070402943 -0.09116973 0.11101204
0.071036488 -0.091243953 0.11107922
0.07164406 -0.091392428 0.11121358
0.072250687 -0.091540903 0.11134796
0.072830424 -0.091763616 0.11154951
0.073461153 -0.091837868 0.1116167
0.069404624 -0.090672627 0.10967065
0.070066467 -0.090672627 0.10967065
0.070678249 -0.09082076 0.10980535
0.071188062 -0.091265187 0.11020944
0.071746044 -0.091561481 0.11047885
0.072456531 -0.091413334 0.11034414
0.073012173 -0.091709629 0.11061355
0.069674775 -0.09032765 0.10845999
0.070264816 -0.09054935 0.10866253
0.070778362 -0.090992808 0.10906763
0.071364895 -0.091214508 0.10927017
0.071975507 -0.091362327 0.1094052
0.072662368 -0.091288432 0.10933769
0.069253616 -0.09006004 0.10731336
0.069871254 -0.090207532 0.10744873
0.070487961 -0.090355009 0.10758407
0.071103722 -0.090502486 0.10771945
0.071668029 -0.090797469 0.10799018
0.072281457 -0.090944946 0.10812555
0.072919682 -0.091018677 0.1081932
0.068803668 -0.089869335 0.10623127
0.069375239 -0.090163648 0.10650267
0.070043169 -0.090163648 0.10650267
0.070686303 -0.09023723 0.10657053
0.071278915 -0.090457946 0.10677405
0.071895391 -0.090605095 0.10690975
0.072536424 -0.090678662 0.10697758
0.07317698 -0.090752259 0.10704544
0.07384304 -0.090752259 0.10704544
0.068900026 -0.090048671 0.10548629
0.069569834 -0.090048671 0.10548629
0.070215084 -0.090122074 0.10555428
0.070835069 -0.09026891 0.1056903
0.071504168 -0.09026891 0.1056903
0.072097488 -0.090489119 0.10589434
0.072842374 -0.09026891 0.1056903
0.073511474 -0.09026891 0.1056903
0.069116846 -0.089863107 0.10439906
0.069764443 -0.089936346 0.10446723
0.070386998 -0.090082839 0.10460359
0.071008623 -0.090229318 0.10473993
0.071679361 -0.090229318 0.10473993
0.072375372 -0.090156063 0.10467175
0.073046349 -0.090156063 0.10467175
0.073743045 -0.090082839 0.10460359
0.068564221 -0.089972809 0.1035822
0.069237307 -0.089972809 0.1035822
0.06986174 -0.09011896 0.10371891
0.070509791 -0.09019205 0.10378726
0.071182176 -0.09019205 0.10378726
0.071854554 -0.09019205 0.10378726
0.072501682 -0.090265125 0.10385559
0.073173828 -0.090265125 0.10385559
0.07394889 -0.089972809 0.1035822
0.06808012 -0.089865461 0.10255823
0.068731219 -0.089938357 0.10262671
0.069381848 -0.090011299 0.10269523
0.070007689 -0.090157107 0.10283226
0.070681706 -0.090157107 0.10283226
0.07135573 -0.090157107 0.10283226
0.072029747 -0.090157107 0.10283226
0.072678514 -0.090230018 0.10290076
0.0733523 -0.090230018 0.10290076
0.074026078 -0.090230018 0.10290076
0.074673899 -0.090302944 0.10296927
0.067545488 -0.089906231 0.10166889
0.068198226 -0.089979008 0.10173757
0.068874359 -0.089979008 0.10173757
0.069550484 -0.089979008 0.10173757
0.070202291 -0.090051726 0.10180625
0.070853621 -0.090124488 0.10187493
0.071529284 -0.090124488 0.10187493
0.072154887 -0.090269968 0.10201228
0.072830088 -0.090269968 0.10201228
0.073505282 -0.090269968 0.10201228
0.074154727 -0.09034273 0.10208096
0.074855663 -0.090269968 0.10201228
0.067732595 -0.08980386 0.10063994
0.068339966 -0.090021595 0.10084644
0.0690175 -0.090021595 0.10084644
0.069695033 -0.090021595 0.10084644
0.07034824 -0.090094179 0.1009153
0.071000978 -0.090166762 0.10098413
0.071628459 -0.09031193 0.10112181
0.072305053 -0.09031193 0.10112181
0.072956391 -0.090384498 0.10119063
0.073632762 -0.090384498 0.10119063
0.074283384 -0.090457097 0.10125948
0.074985482 -0.090384498 0.10119063
0.067826152 -0.089993775 0.099884316
0.06845808 -0.090138614 0.10002233
0.069136783 -0.090138614 0.10002233
0.069791399 -0.090211019 0.10009132
0.070445538 -0.090283453 0.10016035
0.071123779 -0.090283453 0.10016035
0.071752422 -0.090428278 0.10029835
0.072405167 -0.090500683 0.10036735
0.0730827 -0.090500683 0.10036735
0.073734738 -0.090573102 0.10043637
0.074412033 -0.090573102 0.10043637
0.075089335 -0.090573102 0.10043637
0.067239597 -0.090185016 0.099127382
0.067896314 -0.090257287 0.099196553
0.068552569 -0.090329513 0.099265724
0.069232211 -0.090329513 0.099265724
0.069911852 -0.090329513 0.099265724
0.070591494 -0.090329513 0.099265724
0.071222015 -0.090474024 0.099404067
0.071851596 -0.090618521 0.099542424
0.072530299 -0.090618521 0.099542424
0.073183753 -0.090690777 0.099611565
0.07378573 -0.090907529 0.099819094
0.074514955 -0.090763032 0.099680766
0.075193189 -0.090763032 0.099680766
0.067332216 -0.090377584 0.098369122
0.067989863 -0.090449676 0.098438472
0.068670683 -0.090449676 0.098438472
0.069303781 -0.09059386 0.098577142
0.070032306 -0.090449676 0.098438472
0.070664465 -0.09059386 0.098577142
0.071320251 -0.090665936 0.098646462
0.071975566 -0.090738028 0.098715812
0.07258036 -0.090954274 0.098923817
0.073259532 -0.090954274 0.098923817
0.073913217 -0.091026351 0.098993152
0.074592151 -0.091026351 0.098993152
0.075271092 -0.091026351 0.098993152
0.067378514 -0.090715349 0.097748548
0.068060026 -0.090715349 0.097748548
0.068741545 -0.090715349 0.097748548
0.069423057 -0.090715349 0.097748548
0.070104577 -0.090715349 0.097748548
0.07076177 -0.090787247 0.097818047
0.071443051 -0.090787247 0.097818047
0.072099537 -0.09085916 0.097887546
0.072755553 -0.090931088 0.09795706
0.073385842 -0.091074929 0.098096073
0.074040696 -0.091146842 0.098165557
0.074746527 -0.091074929 0.098096073
0.068247139 -0.0906232 0.096709296
0.068930529 -0.0906232 0.096709296
0.069590062 -0.090694949 0.096778959
0.070273213 -0.090694949 0.096778959
0.070907719 -0.090838462 0.0969183
0.071590409 -0.090838462 0.0969183
0.072248295 -0.090910226 0.096987978
0.072905719 -0.090981975 0.097057641
0.073562674 -0.091053739 0.097127318
0.074244663 -0.091053739 0.097127318
0.067702681 -0.090676889 0.095807076
0.068387471 -0.090676889 0.095807076
0.069048643 -0.090748489 0.095876917
0.069733202 -0.090748489 0.095876917
0.070369571 -0.090891674 0.096016586
0.071053669 -0.090891674 0.096016586
0.071688637 -0.091034859 0.096156254
0.072372258 -0.091034859 0.096156254
0.073005833 -0.091178015 0.096295893
0.073714249 -0.09110643 0.096226066
0.07437215 -0.091178015 0.096295893
0.068527795 -0.090732604 0.094902858
0.069214001 -0.090732604 0.094902858
0.069876343 -0.090804011 0.094972864
0.070538208 -0.090875447 0.095042869
0.0711753 -0.091018274 0.095182836
0.071860559 -0.091018274 0.095182836
0.072521023 -0.091089696 0.095252857
0.073181026 -0.091161117 0.095322847
0.073840559 -0.091232553 0.095392853
0.074525118 -0.091232553 0.095392853
0.068003677 -0.090719014 0.093926504
0.06864474 -0.090861514 0.094066799
0.069379352 -0.090719014 0.093926504
0.070019484 -0.090861514 0.094066799
0.070682757 -0.090932786 0.094136983
0.071345575 -0.091004029 0.094207138
0.071958795 -0.091217816 0.094417647
0.072644986 -0.091217816 0.094417647
0.073331185 -0.091217816 0.094417647
0.074017391 -0.091217816 0.094417647
0.074703589 -0.091217816 0.094417647
0.067453362 -0.090778843 0.093018144
0.068119451 -0.090849921 0.093088448
0.068808459 -0.090849921 0.093088448
0.069497474 -0.090849921 0.093088448
0.070138767 -0.090992108 0.093229115
0.07080321 -0.091063201 0.093299463
0.071491517 -0.091063201 0.093299463
0.07213071 -0.091205388 0.09344013
0.07281854 -0.091205388 0.09344013
0.073456332 -0.091347545 0.093580768
0.0741437 -0.091347545 0.093580768
0.074831076 -0.091347545 0.093580768
0.067567959 -0.090911582 0.092178285
0.068258375 -0.090911582 0.092178285
0.068925403 -0.090982497 0.092248783
0.069662832 -0.090840638 0.092107788
0.070329614 -0.090911582 0.092178285
0.070995942 -0.090982497 0.092248783
0.071637474 -0.091124356 0.092389777
0.072278067 -0.091266215 0.092530772
0.072967306 -0.091266215 0.092530772
0.073631525 -0.091337115 0.092601255
0.068397298 -0.09097521 0.091266125
0.069089122 -0.09097521 0.091266125
0.06982819 -0.090833694 0.091124788
0.070472762 -0.09097521 0.091266125
0.071164578 -0.09097521 0.091266125
0.071832076 -0.091045976 0.091336772
0.072449982 -0.091258273 0.091548771
0.07314086 -0.091258273 0.091548771
0.073831744 -0.091258273 0.091548771
0.068513073 -0.091111436 0.090422809
0.069206059 -0.091111436 0.090422809
0.069946297 -0.090970248 0.090281144
0.070639752 -0.090970248 0.090281144
0.071333215 -0.090970248 0.090281144
0.071978025 -0.091111436 0.090422809
0.072646454 -0.091182038 0.090493605
0.073339209 -0.091182038 0.090493605
0.074031964 -0.091182038 0.090493605
0.074699461 -0.09125264 0.090564445
0.068651997 -0.091178879 0.089506805
0.069346391 -0.091178879 0.089506805
0.070064411 -0.091108456 0.089435846
0.070759036 -0.091108456 0.089435846
0.071453668 -0.091108456 0.089435846
0.072148301 -0.091108456 0.089435846
0.072818369 -0.091178879 0.089506805
0.073537558 -0.091108456 0.089435846
0.074232183 -0.091108456 0.089435846
0.068860382 -0.091037527 0.088375375
0.069556884 -0.091037527 0.088375375
0.070253395 -0.091037527 0.088375375
0.070949897 -0.091037527 0.088375375
0.071598217 -0.091178045 0.088517696
0.072342902 -0.091037527 0.088375375
0.073039405 -0.091037527 0.088375375
0.073735908 -0.091037527 0.088375375
0.069673829 -0.091179535 0.087526262
0.070418753 -0.091039345 0.087383613
0.07109303 -0.091109455 0.08745496
0.07171867 -0.09131974 0.087668911
0.072513178 -0.091039345 0.087383613
0.073162198 -0.091179535 0.087526262
0.073810287 -0.09131974 0.087668911
0.070071429 -0.090484008 0.085817605
0.070796706 -0.090414107 0.085746124
0.071474746 -0.090484008 0.085817605
0.072104119 -0.090693831 0.086032078
0.072780758 -0.090763748 0.086103573
0.073383234 -0.091043487 0.086389527
0.070469029 -0.089794159 0.084103331
0.071103804 -0.090003446 0.08431828
0.071689457 -0.090352282 0.084676549
0.072320938 -0.090561569 0.084891543
0.073024005 -0.090561569 0.084891543
0.073628828 -0.090840653 0.085178167
0.07077308 -0.089388296 0.082670689
0.071387269 -0.089666709 0.082957983
0.072047301 -0.089805916 0.08310163
0.072658211 -0.090084314 0.08338891
0.073364556 -0.090084314 0.08338891
0.071717985 -0.089195073 0.081449732
0.072452866 -0.089125633 0.081377745
0.073140033 -0.089195073 0.081449732
0 0 0 1 0 0 0 1 0 0 0 1 0 0 0 0 0 538 1 0 0
