ply
format ascii 1.0
comment PCL generated
element vertex 534
property float x
property float y
property float z
element camera 1
property float view_px
property float view_py
property float view_pz
property float x_axisx
property float x_axisy
property float x_axisz
property float y_axisx
property float y_axisy
property float y_axisz
property float z_axisx
property float z_axisy
property float z_axisz
property float focal
property float scalex
property float scaley
property float centerx
property float centery
property int viewportx
property int viewporty
property float k1
property float k2
end_header
0.069688715 -0.088745475 0.13167964
0.070291109 -0.088824168 0.13174236
0.070919462 -0.088824168 0.13174236
0.068431549 -0.089189947 0.13123517
0.069060132 -0.089189947 0.13123517
0.069688715 -0.089189947 0.13123517
0.070291109 -0.089268491 0.13129804
0.070919462 -0.089268491 0.13129804
0.071521141 -0.089347035 0.13136092
0.072149262 -0.089347035 0.13136092
0.067752436 -0.089791179 0.13091677
0.068406053 -0.089712799 0.13085373
0.069060132 -0.089634418 0.13079068
0.069662757 -0.089712799 0.13085373
0.070291109 -0.089712799 0.13085373
0.070919462 -0.089712799 0.13085373
0.071521141 -0.089791179 0.13091677
0.072149262 -0.089791179 0.13091677
0.072750241 -0.089869559 0.13097982
0.073378131 -0.089869559 0.13097982
0.067099288 -0.090313539 0.13053584
0.067727178 -0.090313539 0.13053584
0.068380557 -0.090235338 0.13047263
0.069008671 -0.090235338 0.13047263
0.069662757 -0.090157107 0.13040942
0.070264906 -0.090235338 0.13047263
0.070893019 -0.090235338 0.13047263
0.071494475 -0.090313539 0.13053584
0.072122365 -0.090313539 0.13053584
0.072750241 -0.090313539 0.13053584
0.073350765 -0.090391725 0.13059902
0.073978417 -0.090391725 0.13059902
0.066446617 -0.090835541 0.13015521
0.067099288 -0.090757519 0.13009186
0.067727178 -0.090757519 0.13009186
0.068355061 -0.090757519 0.13009186
0.069008671 -0.090679482 0.13002849
0.069662757 -0.090601414 0.1299651
0.070264906 -0.090679482 0.13002849
0.070893019 -0.090679482 0.13002849
0.071521141 -0.090679482 0.13002849
0.072095469 -0.090835541 0.13015521
0.072750241 -0.090757519 0.13009186
0.073350765 -0.090835541 0.13015521
0.073950805 -0.090913609 0.1302186
0.074578218 -0.090913609 0.1302186
0.065794408 -0.091357261 0.12977494
0.066421822 -0.091357261 0.12977494
0.067074262 -0.091279358 0.12971139
0.067701921 -0.091279358 0.12971139
0.068355061 -0.091201499 0.12964788
0.068982944 -0.091201499 0.12964788
0.069636784 -0.091123626 0.12958434
0.070264906 -0.091123626 0.12958434
0.070893019 -0.091123626 0.12958434
0.071494475 -0.091201499 0.12964788
0.072122365 -0.091201499 0.12964788
0.072723113 -0.091279358 0.12971139
0.073323391 -0.091357261 0.12977494
0.073978417 -0.091279358 0.12971139
0.074578218 -0.091357261 0.12977494
0.066421822 -0.091800898 0.12933129
0.067049235 -0.091800898 0.12933129
0.067676648 -0.091800898 0.12933129
0.068329573 -0.091723174 0.12926759
0.068982944 -0.091645479 0.1292039
0.069610827 -0.091645479 0.1292039
0.070264906 -0.09156777 0.1291402
0.070866592 -0.091645479 0.1292039
0.071494475 -0.091645479 0.1292039
0.072095469 -0.091723174 0.12926759
0.072723113 -0.091723174 0.12926759
0.073350765 -0.091723174 0.12926759
0.073950805 -0.091800898 0.12933129
0.074578218 -0.091800898 0.12933129
0.066397026 -0.092322096 0.12895152
0.067049235 -0.092244551 0.12888765
0.067676648 -0.092244551 0.12888765
0.068355061 -0.092089459 0.12875992
0.068982944 -0.092089459 0.12875992
0.069610827 -0.092089459 0.12875992
0.070264906 -0.092011914 0.12869605
0.070893019 -0.092011914 0.12869605
0.071521141 -0.092011914 0.12869605
0.072122365 -0.092089459 0.12875992
0.072750241 -0.092089459 0.12875992
0.073378131 -0.092089459 0.12875992
0.073978417 -0.09216699 0.12882377
0.074606061 -0.09216699 0.12882377
0.067024209 -0.092765585 0.12850803
0.067676648 -0.092688203 0.128444
0.068355061 -0.092533439 0.12831593
0.069008671 -0.092456073 0.1282519
0.069662757 -0.092378676 0.12818785
0.070291109 -0.092378676 0.12818785
0.070945889 -0.092301294 0.12812382
0.071547814 -0.092378676 0.12818785
0.072176166 -0.092378676 0.12818785
0.072750241 -0.092533439 0.12831593
0.073378131 -0.092533439 0.12831593
0.074006014 -0.092533439 0.12831593
0.074606061 -0.092610806 0.12837996
0.067024209 -0.093209058 0.12806454
0.067676648 -0.093131855 0.12800035
0.068329573 -0.093054622 0.12793614
0.069008671 -0.092900217 0.12780775
0.069662757 -0.092822984 0.12774354
0.070343509 -0.092668533 0.12761512
0.070998751 -0.09259133 0.12755093
0.071654484 -0.092514098 0.12748672
0.072229974 -0.092668533 0.12761512
0.072804518 -0.092822984 0.12774354
0.073405497 -0.092900217 0.12780775
0.073978417 -0.093054622 0.12793614
0.067727178 -0.0934214 0.12742797
0.068380557 -0.093344361 0.12736361
0.069060132 -0.093190253 0.12723486
0.069636784 -0.093344361 0.12736361
0.070369706 -0.09303613 0.12710613
0.07105162 -0.092882037 0.12697738
0.071681149 -0.092882037 0.12697738
0.072256871 -0.09303613 0.12710613
0.072858788 -0.093113184 0.12717049
0.073460236 -0.093190253 0.12723486
0.074061222 -0.093267292 0.12729923
0.068005055 -0.09301962 0.12627411
0.068559036 -0.093250275 0.12646769
0.069214515 -0.0931734 0.12640318
0.069974326 -0.092788965 0.1260805
0.070631698 -0.09271206 0.12601596
0.071289517 -0.092635185 0.12595144
0.071867816 -0.092788965 0.1260805
0.072498977 -0.092788965 0.1260805
0.072994463 -0.0931734 0.12640318
0.073514976 -0.093480945 0.12666132
0.06972912 -0.092084423 0.12466371
0.070363797 -0.092084423 0.12466371
0.070946075 -0.092237875 0.12479311
0.071500987 -0.092468038 0.12498721
0.072107822 -0.092544779 0.12505192
0.073238678 -0.09292838 0.1253754
0.070192263 -0.091155216 0.12304735
0.070779227 -0.091308311 0.12317708
0.07131286 -0.091614544 0.12343656
0.071871042 -0.091844201 0.12363113
0.072534494 -0.091767669 0.12356628
0.073090814 -0.091997325 0.12376086
0.070449568 -0.090843081 0.12194528
0.071090803 -0.090843081 0.12194528
0.071705841 -0.090919465 0.12201031
0.072320394 -0.090995863 0.12207535
0.072961167 -0.090995863 0.12207535
0.069961317 -0.090839148 0.12110068
0.070655413 -0.090686694 0.12097028
0.071220621 -0.090915382 0.12116589
0.07181064 -0.091067806 0.12129626
0.072452568 -0.091067806 0.12129626
0.073121168 -0.090991601 0.12123106
0.069419727 -0.090989307 0.12038481
0.0700633 -0.090989307 0.12038481
0.070732601 -0.090913266 0.12031946
0.071350448 -0.090989307 0.12038481
0.071967825 -0.091065377 0.12045018
0.072611161 -0.091065377 0.12045018
0.073254503 -0.091065377 0.12045018
0.073897846 -0.091065377 0.12045018
0.069520764 -0.091140836 0.11966763
0.07019078 -0.09106493 0.1196021
0.070809789 -0.091140836 0.11966763
0.071454301 -0.091140836 0.11966763
0.072098814 -0.091140836 0.11966763
0.072743326 -0.091140836 0.11966763
0.073387839 -0.091140836 0.11966763
0.074059255 -0.09106493 0.1196021
0.069051452 -0.091066465 0.11875202
0.069697611 -0.091066465 0.11875202
0.070343763 -0.091066465 0.11875202
0.070989907 -0.091066465 0.11875202
0.071636058 -0.091066465 0.11875202
0.072282217 -0.091066465 0.11875202
0.072901927 -0.091142192 0.11881775
0.073574513 -0.091066465 0.11875202
0.074193761 -0.091142192 0.11881775
0.074839674 -0.091142192 0.11881775
0.068578862 -0.090994418 0.11783411
0.069176592 -0.091145545 0.11796583
0.069823913 -0.091145545 0.11796583
0.070522234 -0.090994418 0.11783411
0.071170017 -0.090994418 0.11783411
0.071765885 -0.091145545 0.11796583
0.072413206 -0.091145545 0.11796583
0.073034085 -0.091221109 0.11803171
0.073681176 -0.091221109 0.11803171
0.074328266 -0.091221109 0.11803171
0.075002491 -0.091145545 0.11796583
0.068727612 -0.09100011 0.11697993
0.069351785 -0.091075495 0.11704594
0.07002601 -0.09100011 0.11697993
0.070675202 -0.09100011 0.11697993
0.071272932 -0.091150895 0.11711198
0.071921661 -0.091150895 0.11711198
0.072544202 -0.091226295 0.11717799
0.073192686 -0.091226295 0.11717799
0.073841184 -0.091226295 0.11717799
0.074489675 -0.091226295 0.11717799
0.068925969 -0.090857297 0.11599134
0.069552004 -0.090932548 0.11605754
0.070202842 -0.090932548 0.11605754
0.070802689 -0.09108299 0.11618991
0.07145305 -0.09108299 0.11618991
0.072077453 -0.091158226 0.11625612
0.072701395 -0.091233462 0.11632229
0.073298417 -0.091383904 0.11645468
0.073921181 -0.09145917 0.11652087
0.07457038 -0.09145917 0.11652087
0.075219572 -0.09145917 0.11652087
0.069124311 -0.090717167 0.11500014
0.069727205 -0.090867266 0.11513284
0.070354417 -0.090942353 0.11519919
0.070930168 -0.091167539 0.11539826
0.071581706 -0.091167539 0.11539826
0.072207272 -0.091242626 0.11546463
0.072832383 -0.091317669 0.11553097
0.073430583 -0.091467813 0.11566368
0.074081182 -0.091467813 0.11566368
0.074704893 -0.09154287 0.11573003
0.068716966 -0.090429857 0.11387321
0.069322661 -0.090579659 0.11400625
0.069927417 -0.090729445 0.1141393
0.070556514 -0.090804338 0.11420581
0.071134135 -0.091029063 0.11440539
0.071736082 -0.091178864 0.11453845
0.072363064 -0.091253743 0.11460495
0.072963379 -0.091403559 0.11473799
0.073615611 -0.091403559 0.11473799
0.074241191 -0.091478452 0.11480451
0.074839398 -0.091628253 0.11493756
0.068864316 -0.090444818 0.11300975
0.069496214 -0.090519547 0.11307642
0.07010261 -0.090669006 0.1132098
0.070682824 -0.090893209 0.11340986
0.071312606 -0.090967953 0.11347656
0.071890466 -0.091192141 0.11367661
0.072492883 -0.091341615 0.11380999
0.073146768 -0.091341615 0.11380999
0.073721342 -0.091565818 0.11401004
0.074374527 -0.091565818 0.11401004
0.0750008 -0.091640562 0.11407673
0.068962559 -0.090610877 0.11227798
0.069620185 -0.090610877 0.11227798
0.07022775 -0.090760022 0.11241169
0.070834383 -0.090909168 0.1125454
0.071440093 -0.091058284 0.11267908
0.072044849 -0.09120743 0.11281279
0.072648674 -0.091356561 0.11294651
0.073277757 -0.091431141 0.11301337
0.073906377 -0.091505706 0.1130802
0.074534528 -0.091580257 0.11314705
0.068499535 -0.090480655 0.11127682
0.069085352 -0.09070389 0.11147788
0.069719359 -0.090778291 0.11154489
0.070352897 -0.090852663 0.1116119
0.070985958 -0.090927079 0.11167893
0.071618564 -0.091001481 0.11174594
0.072173499 -0.091299102 0.11201403
0.072804458 -0.091373518 0.11208105
0.073434956 -0.09144792 0.11214805
0.074064977 -0.091522306 0.11221506
0.068572506 -0.090724304 0.11060894
0.069208153 -0.090798512 0.11067611
0.069843322 -0.090872765 0.1107433
0.07047803 -0.090947002 0.11081047
0.07108701 -0.091095477 0.11094485
0.071720548 -0.09116973 0.11101204
0.072353609 -0.091243953 0.11107922
0.072960243 -0.091392428 0.11121358
0.073592149 -0.091466665 0.11128075
0.074223571 -0.091540903 0.11134796
0.068718463 -0.090746686 0.10973799
0.069355503 -0.09082076 0.10980535
0.070016876 -0.09082076 0.10980535
0.070653223 -0.090894833 0.1098727
0.071238585 -0.091117054 0.11007473
0.071873523 -0.091191128 0.11014211
0.072507992 -0.091265187 0.11020944
0.073116034 -0.091413334 0.11034414
0.073723137 -0.091561481 0.11047885
0.074355729 -0.09163557 0.1105462
0.068913057 -0.090623289 0.10873005
0.069551982 -0.090697169 0.10879757
0.07019043 -0.090771094 0.10886508
0.070853442 -0.090771094 0.10886508
0.071415417 -0.091066688 0.10913514
0.072051995 -0.091140628 0.10920265
0.072662368 -0.091288432 0.10933769
0.073297784 -0.091362327 0.1094052
0.073958926 -0.091362327 0.1094052
0.074567199 -0.091510147 0.10954024
0.068514571 -0.090281278 0.10751642
0.069107659 -0.090502486 0.10771945
0.069748454 -0.090576246 0.10778713
0.070388779 -0.090649977 0.10785481
0.071028642 -0.090723708 0.10792249
0.071668029 -0.090797469 0.10799018
0.072230466 -0.091092438 0.1082609
0.072868221 -0.091166154 0.10832858
0.073505498 -0.091239914 0.10839626
0.074142322 -0.091313645 0.10846394
0.068087086 -0.090016484 0.10636698
0.069326587 -0.090310797 0.10663836
0.069944933 -0.090457946 0.10677405
0.070587136 -0.090531513 0.10684189
0.071178801 -0.090752259 0.10704544
0.071819603 -0.090825826 0.10711327
0.072408937 -0.091046557 0.10731682
0.073048331 -0.091120124 0.10738467
0.073687255 -0.091193691 0.10745251
0.074351914 -0.091193691 0.10745251
0.068851843 -0.090195507 0.10562231
0.069521189 -0.090195507 0.10562231
0.070165962 -0.09026891 0.1056903
0.070810273 -0.090342298 0.10575831
0.071404055 -0.090562537 0.10596237
0.0720217 -0.090709358 0.1060984
0.072612911 -0.090929583 0.10630241
0.07389497 -0.091076404 0.10643844
0.069020487 -0.090156063 0.10467175
0.069667138 -0.090229318 0.10473993
0.070337877 -0.090229318 0.10473993
0.071008623 -0.090229318 0.10473993
0.071579248 -0.090522304 0.10501266
0.072198533 -0.090668797 0.10514902
0.07286787 -0.090668797 0.10514902
0.073485747 -0.090815261 0.10528535
0.074102685 -0.090961754 0.10542171
0.069189124 -0.09011896 0.10371891
0.069837414 -0.09019205 0.10378726
0.070509791 -0.09019205 0.10378726
0.071157381 -0.090265125 0.10385559
0.071804494 -0.090338215 0.10392395
0.07240063 -0.090557456 0.10412897
0.073046349 -0.090630502 0.10419729
0.073665857 -0.090776667 0.104334
0.068755075 -0.089865461 0.10255823
0.069381848 -0.090011299 0.10269523
0.070007689 -0.090157107 0.10283226
0.070681706 -0.090157107 0.10283226
0.071330935 -0.090230018 0.10290076
0.071979687 -0.090302944 0.10296927
0.072627984 -0.090375856 0.10303777
0.073326796 -0.090302944 0.10296927
0.074000344 -0.090302944 0.10296927
0.068198226 -0.089979008 0.10173757
0.068850502 -0.090051726 0.10180625
0.069526397 -0.090051726 0.10180625
0.070177965 -0.090124488 0.10187493
0.070853621 -0.090124488 0.10187493
0.071529284 -0.090124488 0.10187493
0.072154887 -0.090269968 0.10201228
0.072830088 -0.090269968 0.10201228
0.073479779 -0.09034273 0.10208096
0.074180469 -0.090269968 0.10201228
0.068292722 -0.090166762 0.10098413
0.068969786 -0.090166762 0.10098413
0.069598667 -0.09031193 0.10112181
0.070323914 -0.090166762 0.10098413
0.071000978 -0.090166762 0.10098413
0.071628459 -0.09031193 0.10112181
0.072280027 -0.090384498 0.10119063
0.072956391 -0.090384498 0.10119063
0.073607258 -0.090457097 0.10125948
0.074309118 -0.090384498 0.10119063
0.06777937 -0.090138614 0.10002233
0.068434462 -0.090211019 0.10009132
0.06908907 -0.090283453 0.10016035
0.069767304 -0.090283453 0.10016035
0.070445538 -0.090283453 0.10016035
0.071123779 -0.090283453 0.10016035
0.071752422 -0.090428278 0.10029835
0.072430186 -0.090428278 0.10029835
0.0730827 -0.090500683 0.10036735
0.073760234 -0.090500683 0.10036735
0.074437767 -0.090500683 0.10036735
0.067872927 -0.090329513 0.099265724
0.068505324 -0.090474024 0.099404067
0.069184497 -0.090474024 0.099404067
0.06986367 -0.090474024 0.099404067
0.070542842 -0.090474024 0.099404067
0.071222015 -0.090474024 0.099404067
0.071876399 -0.090546265 0.099473238
0.072555333 -0.090546265 0.099473238
0.07320901 -0.090618521 0.099542424
0.073887713 -0.090618521 0.099542424
0.074592151 -0.090546265 0.099473238
0.067919701 -0.090665936 0.098646462
0.068599813 -0.090665936 0.098646462
0.069279924 -0.090665936 0.098646462
0.069960035 -0.090665936 0.098646462
0.070640147 -0.090665936 0.098646462
0.071320251 -0.090665936 0.098646462
0.071975566 -0.090738028 0.098715812
0.072655439 -0.090738028 0.098715812
0.073360585 -0.090665936 0.098646462
0.074015193 -0.090738028 0.098715812
0.074695066 -0.090738028 0.098715812
0.068013258 -0.09085916 0.097887546
0.068670683 -0.090931088 0.09795706
0.069375351 -0.09085916 0.097887546
0.070056401 -0.09085916 0.097887546
0.07076177 -0.090787247 0.097818047
0.071418494 -0.09085916 0.097887546
0.072099537 -0.09085916 0.097887546
0.072780579 -0.09085916 0.097887546
0.073461629 -0.09085916 0.097887546
0.07414268 -0.09085916 0.097887546
0.074823722 -0.09085916 0.097887546
0.068106808 -0.091053739 0.097127318
0.068741545 -0.091197252 0.097266644
0.069470771 -0.091053739 0.097127318
0.070176847 -0.090981975 0.097057641
0.070859075 -0.090981975 0.097057641
0.071541287 -0.090981975 0.097057641
0.072223507 -0.090981975 0.097057641
0.072880685 -0.091053739 0.097127318
0.073587939 -0.090981975 0.097057641
0.074270159 -0.090981975 0.097057641
0.074978098 -0.090910226 0.096987978
0.068223752 -0.091178015 0.096295893
0.068906911 -0.091178015 0.096295893
0.069590062 -0.091178015 0.096295893
0.070297301 -0.09110643 0.096226066
0.070980698 -0.09110643 0.096226066
0.07166408 -0.09110643 0.096226066
0.072322682 -0.091178015 0.096295893
0.073005833 -0.091178015 0.096295893
0.073714249 -0.09110643 0.096226066
0.074397638 -0.09110643 0.096226066
0.067679517 -0.091232553 0.095392853
0.068364076 -0.091232553 0.095392853
0.069072269 -0.091161117 0.095322847
0.069733202 -0.091232553 0.095392853
0.070465937 -0.091089696 0.095252857
0.071126647 -0.091161117 0.095322847
0.07178688 -0.091232553 0.095392853
0.072471432 -0.091232553 0.095392853
0.073181026 -0.091161117 0.095322847
0.073865823 -0.091161117 0.095322847
0.074550621 -0.091161117 0.095322847
0.068504408 -0.091289058 0.094487816
0.069190376 -0.091289058 0.094487816
0.069876343 -0.091289058 0.094487816
0.070586391 -0.091217816 0.094417647
0.071272597 -0.091217816 0.094417647
0.071934238 -0.091289058 0.094487816
0.072595403 -0.091360331 0.094557986
0.073306166 -0.091289058 0.094487816
0.073992133 -0.091289058 0.094487816
0.074678101 -0.091289058 0.094487816
0.06864474 -0.091347545 0.093580768
0.069379352 -0.091205388 0.09344013
0.070019484 -0.091347545 0.093580768
0.070755027 -0.091205388 0.09344013
0.071394227 -0.091347545 0.093580768
0.072081596 -0.091347545 0.093580768
0.072744168 -0.091418669 0.093651101
0.073431298 -0.091418669 0.093651101
0.074118435 -0.091418669 0.093651101
0.074805573 -0.091418669 0.093651101
0.068165764 -0.091195285 0.092460245
0.068855241 -0.091195285 0.092460245
0.069544718 -0.091195285 0.092460245
0.070234194 -0.091195285 0.092460245
0.070923671 -0.091195285 0.092460245
0.071564503 -0.091337115 0.092601255
0.07225351 -0.091337115 0.092601255
0.072892927 -0.091478974 0.092742249
0.073581465 -0.091478974 0.092742249
0.07427001 -0.091478974 0.092742249
0.068281531 -0.091329008 0.091619417
0.06904234 -0.091116741 0.091407448
0.06975732 -0.091045976 0.091336772
0.070448905 -0.091045976 0.091336772
0.07114049 -0.091045976 0.091336772
0.071759097 -0.091258273 0.091548771
0.07240086 -0.091399774 0.091690093
0.073091276 -0.091399774 0.091690093
0.073781684 -0.091399774 0.091690093
0.074446842 -0.091470525 0.091760755
0.069206059 -0.091111436 0.090422809
0.069946297 -0.090970248 0.090281144
0.070639752 -0.090970248 0.090281144
0.071285032 -0.091111436 0.090422809
0.071978025 -0.091111436 0.090422809
0.072646454 -0.091182038 0.090493605
0.073289625 -0.091323212 0.09063527
0.073981911 -0.091323212 0.09063527
0.074623674 -0.0914644 0.090776935
0.069393165 -0.091038018 0.089364842
0.070088036 -0.091038018 0.089364842
0.0707829 -0.091038018 0.089364842
0.071477763 -0.091038018 0.089364842
0.072123975 -0.091178879 0.089506805
0.072769254 -0.09131974 0.089648798
0.073463179 -0.09131974 0.089648798
0.074132077 -0.091390163 0.089719787
0.069580272 -0.090967268 0.088304237
0.070277013 -0.090967268 0.088304237
0.070973746 -0.090967268 0.088304237
0.0716464 -0.091037527 0.088375375
0.07229425 -0.091178045 0.088517696
0.072990283 -0.091178045 0.088517696
0.073661521 -0.091248333 0.088588864
0.070560485 -0.090618744 0.086955667
0.071188457 -0.090829059 0.087169647
0.071863212 -0.090899155 0.087240964
0.072513178 -0.091039345 0.087383613
0.07321132 -0.091039345 0.087383613
0.073810287 -0.09131974 0.087668911
0.070188373 -0.090134367 0.085460156
0.070820332 -0.090344176 0.085674644
0.071427032 -0.090623885 0.085960582
0.072104119 -0.090693831 0.086032078
0.072780758 -0.090763748 0.086103573
0.073407792 -0.090973571 0.086318046
0.07105656 -0.09014298 0.0844616
0.071689457 -0.090352282 0.084676549
0.072320938 -0.090561569 0.084891543
0.072999679 -0.090631336 0.084963188
0.073604271 -0.09091042 0.085249811
0.070656136 -0.089736298 0.083029792
0.071269162 -0.090014696 0.083317086
0.071904168 -0.090223506 0.083532542
0.072610036 -0.090223506 0.083532542
0.073291577 -0.090293109 0.08360438
0 0 0 1 0 0 0 1 0 0 0 1 0 0 0 0 0 534 1 0 0
