ply
format ascii 1.0
comment PCL generated
element vertex 532
property float x
property float y
property float z
element camera 1
property float view_px
property float view_py
property float view_pz
property float x_axisx
property float x_axisy
property float x_axisz
property float y_axisx
property float y_axisy
property float y_axisz
property float z_axisx
property float z_axisy
property float z_axisz
property float focal
property float scalex
property float scaley
property float centerx
property float centery
property int viewportx
property int viewporty
property float k1
property float k2
end_header
0.069060132 -0.088745475 0.13167964
0.069714688 -0.088666752 0.13161692
0.070317306 -0.088745475 0.13167964
0.070919462 -0.088824168 0.13174236
0.071521141 -0.088902891 0.13180508
0.067752436 -0.089347035 0.13136092
0.068406053 -0.089268491 0.13129804
0.069034405 -0.089268491 0.13129804
0.069662757 -0.089268491 0.13129804
0.070291109 -0.089268491 0.13129804
0.070866592 -0.089425579 0.1314238
0.071494475 -0.089425579 0.1314238
0.072122365 -0.089425579 0.1314238
0.067099288 -0.089869559 0.13097982
0.067727178 -0.089869559 0.13097982
0.068380557 -0.089791179 0.13091677
0.069008671 -0.089791179 0.13091677
0.069636784 -0.089791179 0.13091677
0.070291109 -0.089712799 0.13085373
0.070893019 -0.089791179 0.13091677
0.071494475 -0.089869559 0.13097982
0.072095469 -0.089947909 0.13104284
0.072695971 -0.090026304 0.1311059
0.066421822 -0.090469956 0.13066225
0.067049235 -0.090469956 0.13066225
0.067701921 -0.090391725 0.13059902
0.068355061 -0.090313539 0.13053584
0.068982944 -0.090313539 0.13053584
0.069610827 -0.090313539 0.13053584
0.070238717 -0.090313539 0.13053584
0.070866592 -0.090313539 0.13053584
0.071441144 -0.090469956 0.13066225
0.072068557 -0.090469956 0.13066225
0.072695971 -0.090469956 0.13066225
0.073296025 -0.090548158 0.13072546
0.065769851 -0.090991646 0.13028197
0.066372231 -0.091069698 0.13034534
0.067049235 -0.090913609 0.1302186
0.067676648 -0.090913609 0.1302186
0.068304069 -0.090913609 0.1302186
0.068931475 -0.090913609 0.1302186
0.069610827 -0.090757519 0.13009186
0.070186317 -0.090913609 0.1302186
0.070840165 -0.090835541 0.13015521
0.071467817 -0.090835541 0.13015521
0.072041661 -0.090991646 0.13028197
0.072668836 -0.090991646 0.13028197
0.073296025 -0.090991646 0.13028197
0.073895596 -0.091069698 0.13034534
0.06572073 -0.091590896 0.12996557
0.066372231 -0.091513023 0.12990203
0.066999175 -0.091513023 0.12990203
0.067626126 -0.091513023 0.12990203
0.068278573 -0.091435134 0.12983848
0.068931475 -0.091357261 0.12977494
0.069558896 -0.091357261 0.12977494
0.070186317 -0.091357261 0.12977494
0.070813723 -0.091357261 0.12977494
0.071441144 -0.091357261 0.12977494
0.072041661 -0.091435134 0.12983848
0.072641701 -0.091513023 0.12990203
0.073268652 -0.091513023 0.12990203
0.073895596 -0.091513023 0.12990203
0.074494705 -0.091590896 0.12996557
0.065696165 -0.092111781 0.12958613
0.066322647 -0.092111781 0.12958613
0.066974156 -0.092034042 0.12952241
0.067626126 -0.091956347 0.12945871
0.068227582 -0.092034042 0.12952241
0.068905748 -0.091878608 0.12939501
0.069532938 -0.091878608 0.12939501
0.070160121 -0.091878608 0.12939501
0.070787296 -0.091878608 0.12939501
0.071414478 -0.091878608 0.12939501
0.072014757 -0.091956347 0.12945871
0.072641701 -0.091956347 0.12945871
0.073268652 -0.091956347 0.12945871
0.073895596 -0.091956347 0.12945871
0.074494705 -0.092034042 0.12952241
0.065696165 -0.092554763 0.12914315
0.066322647 -0.092554763 0.12914315
0.066974156 -0.092477202 0.12907927
0.067626126 -0.092399657 0.1290154
0.068253078 -0.092399657 0.1290154
0.068905748 -0.092322096 0.12895152
0.069532938 -0.092322096 0.12895152
0.070186317 -0.092244551 0.12888765
0.070813723 -0.092244551 0.12888765
0.071414478 -0.092322096 0.12895152
0.072041661 -0.092322096 0.12895152
0.072641701 -0.092399657 0.1290154
0.073268652 -0.092399657 0.1290154
0.073895596 -0.092399657 0.1290154
0.074494705 -0.092477202 0.12907927
0.066347443 -0.092920363 0.12863611
0.066974156 -0.092920363 0.12863611
0.067626126 -0.092842981 0.12857208
0.068227582 -0.092920363 0.12863611
0.068905748 -0.092765585 0.12850803
0.069558896 -0.092688203 0.128444
0.070186317 -0.092688203 0.128444
0.070813723 -0.092688203 0.128444
0.071441144 -0.092688203 0.128444
0.072068557 -0.092688203 0.128444
0.072641701 -0.092842981 0.12857208
0.073268652 -0.092842981 0.12857208
0.073867999 -0.092920363 0.12863611
0.074494705 -0.092920363 0.12863611
0.066322647 -0.093440741 0.12825717
0.066974156 -0.093363509 0.12819296
0.067600869 -0.093363509 0.12819296
0.068253078 -0.093286291 0.12812877
0.068982944 -0.092977419 0.12787196
0.069610827 -0.092977419 0.12787196
0.070264906 -0.092900217 0.12780775
0.070919462 -0.092822984 0.12774354
0.071494475 -0.092977419 0.12787196
0.072122365 -0.092977419 0.12787196
0.072668836 -0.093209058 0.12806454
0.073296025 -0.093209058 0.12806454
0.073895596 -0.093286291 0.12812877
0.066974156 -0.093806654 0.1277498
0.067626126 -0.093729615 0.12768544
0.068329573 -0.093498439 0.12749232
0.068982944 -0.0934214 0.12742797
0.069662757 -0.093267292 0.12729923
0.070291109 -0.093267292 0.12729923
0.070893019 -0.093344361 0.12736361
0.071467817 -0.093498439 0.12749232
0.072122365 -0.0934214 0.12742797
0.072750241 -0.0934214 0.12742797
0.073350765 -0.093498439 0.12749232
0.067049235 -0.094019145 0.12711304
0.067802958 -0.093634725 0.12679039
0.068559036 -0.093250275 0.12646769
0.069265977 -0.09301962 0.12627411
0.069922395 -0.092942744 0.12620957
0.070553094 -0.092942744 0.12620957
0.071183786 -0.092942744 0.12620957
0.071814477 -0.092942744 0.12620957
0.072364479 -0.0931734 0.12640318
0.072967328 -0.093250275 0.12646769
0.07348761 -0.093557835 0.12672584
0.068080842 -0.093235269 0.12563421
0.068788499 -0.093005091 0.12544011
0.069446087 -0.09292838 0.1253754
0.070130117 -0.092774928 0.125246
0.070788883 -0.092698216 0.1251813
0.071368814 -0.092851654 0.12531072
0.072001152 -0.092851654 0.12531072
0.072579689 -0.093005091 0.12544011
0.069170937 -0.092303559 0.12402034
0.070467658 -0.092226982 0.12395546
0.071129471 -0.092150435 0.12389061
0.071712442 -0.092303559 0.12402034
0.072321162 -0.092380106 0.12408519
0.072929397 -0.092456669 0.12415007
0.071012907 -0.091525167 0.12168746
0.071574852 -0.091753826 0.12188303
0.07221467 -0.091753826 0.12188303
0.070578218 -0.091369629 0.12071164
0.071194664 -0.091445684 0.12077698
0.071836837 -0.091445684 0.12077698
0.072452568 -0.091521725 0.12084234
0.07309451 -0.091521725 0.12084234
0.069076478 -0.090533674 0.11914341
0.069621816 -0.09083724 0.11940552
0.07019078 -0.09106493 0.1196021
0.070784062 -0.091216713 0.11973315
0.071454301 -0.091140836 0.11966763
0.072046429 -0.09129259 0.11979868
0.07266403 -0.091368511 0.11986421
0.073281176 -0.091444388 0.11992973
0.07392475 -0.091444388 0.11992973
0.069251671 -0.090460643 0.1182265
0.069823913 -0.090687811 0.11842357
0.07042025 -0.090839282 0.11855495
0.07104136 -0.090915009 0.11862066
0.071636058 -0.091066465 0.11875202
0.072229818 -0.091217905 0.11888342
0.072849058 -0.091293648 0.11894912
0.073494509 -0.091293648 0.11894912
0.074086159 -0.091445103 0.11908051
0.069577031 -0.08993654 0.1169121
0.070051275 -0.090465471 0.11737311
0.07062421 -0.090692177 0.1175707
0.071221478 -0.09084329 0.11770241
0.071817815 -0.090994418 0.11783411
0.072413206 -0.091145545 0.11796583
0.073007658 -0.091296673 0.11809756
0.07365451 -0.091296673 0.11809756
0.069099523 -0.089869142 0.11598955
0.069702171 -0.090019941 0.11612161
0.070253365 -0.090321541 0.11638571
0.070802689 -0.090623111 0.11664979
0.071401589 -0.09077391 0.11678185
0.071973592 -0.09100011 0.11697993
0.072596595 -0.091075495 0.11704594
0.073219113 -0.091150895 0.11711198
0.073841184 -0.091226295 0.11717799
0.069149107 -0.090180218 0.11539564
0.069752224 -0.090330675 0.11552802
0.070329152 -0.090556368 0.11572659
0.070930168 -0.09070684 0.11585897
0.071555965 -0.090782076 0.11592516
0.072155342 -0.090932548 0.11605754
0.072753794 -0.09108299 0.11618991
0.073377714 -0.091158226 0.11625612
0.074001186 -0.091233462 0.11632229
0.074651085 -0.091233462 0.11632229
0.068692401 -0.090041578 0.11440293
0.069273077 -0.090266749 0.114602
0.069877364 -0.090416893 0.11473471
0.070455462 -0.090642095 0.11493376
0.071057647 -0.090792209 0.11506648
0.071658894 -0.090942353 0.11519919
0.072285175 -0.09101741 0.11526555
0.072858579 -0.091242626 0.11546463
0.073483452 -0.091317669 0.11553097
0.074134521 -0.091317669 0.11553097
0.068790644 -0.090205148 0.11367366
0.069372252 -0.090429857 0.11387321
0.069977477 -0.090579659 0.11400625
0.070607036 -0.090654537 0.11407277
0.07121063 -0.090804338 0.11420581
0.071787544 -0.091029063 0.11440539
0.072389022 -0.091178864 0.11453845
0.073015779 -0.091253743 0.11460495
0.073615611 -0.091403559 0.11473799
0.074267857 -0.091403559 0.11473799
0.06888888 -0.090370074 0.11294305
0.069496214 -0.090519547 0.11307642
0.070127644 -0.090594262 0.1131431
0.070758604 -0.090669006 0.1132098
0.07133811 -0.090893209 0.11340986
0.071941927 -0.091042683 0.11354323
0.072570786 -0.091117397 0.11360991
0.073172972 -0.09126687 0.11374329
0.073747776 -0.091491088 0.11394337
0.074374527 -0.091565818 0.11401004
0.069011673 -0.090461731 0.11214426
0.06964498 -0.090536296 0.11221112
0.07027781 -0.090610877 0.11227798
0.070884913 -0.090760022 0.11241169
0.071491078 -0.090909168 0.1125454
0.072070576 -0.091132864 0.11274594
0.072700605 -0.09120743 0.11281279
0.073277757 -0.091431141 0.11301337
0.073932804 -0.091431141 0.11301337
0.068523854 -0.090406269 0.11120979
0.069159031 -0.090480655 0.11127682
0.069768943 -0.090629473 0.11141086
0.070402943 -0.09070389 0.11147788
0.071036488 -0.090778291 0.11154489
0.071618564 -0.091001481 0.11174594
0.072250687 -0.091075897 0.11181296
0.072804458 -0.091373518 0.11208105
0.073434956 -0.09144792 0.11214805
0.068718463 -0.090278864 0.11020581
0.069330946 -0.090427339 0.11034019
0.069917709 -0.090650052 0.11054173
0.070553109 -0.090724304 0.11060894
0.071188062 -0.090798512 0.11067611
0.071746044 -0.091095477 0.11094485
0.072353609 -0.091243953 0.11107922
0.072960243 -0.091392428 0.11121358
0.073618345 -0.091392428 0.11121358
0.068937384 -0.090080038 0.10913184
0.069551982 -0.090228185 0.10926655
0.070165642 -0.090376332 0.10940126
0.070753336 -0.090598539 0.10960329
0.071364895 -0.090746686 0.10973799
0.071924515 -0.091042981 0.11000741
0.072533719 -0.091191128 0.11014211
0.073167965 -0.091265187 0.11020944
0.073801734 -0.091339275 0.11027679
0.069156311 -0.089884207 0.10805489
0.069748454 -0.090105921 0.10825744
0.070339195 -0.09032765 0.10845999
0.070928529 -0.09054935 0.10866253
0.071541727 -0.090697169 0.10879757
0.072153986 -0.090844989 0.1089326
0.07271383 -0.091140628 0.10920265
0.073349714 -0.091214508 0.10927017
0.074011326 -0.091214508 0.10927017
0.069326587 -0.089838833 0.10711032
0.069920376 -0.09006004 0.10731336
0.070537545 -0.090207532 0.10744873
0.071153782 -0.090355009 0.10758407
0.071743816 -0.090576246 0.10778713
0.072357953 -0.090723708 0.10792249
0.07299687 -0.090797469 0.10799018
0.07366129 -0.090797469 0.10799018
0.068301797 -0.089354306 0.10575636
0.068875939 -0.089648619 0.10602775
0.069472544 -0.089869335 0.10623127
0.070067726 -0.090090081 0.10643482
0.070711099 -0.090163648 0.10650267
0.071328975 -0.090310797 0.10663836
0.071920656 -0.090531513 0.10684189
0.07256192 -0.090605095 0.10690975
0.073202714 -0.090678662 0.10697758
0.07384304 -0.090752259 0.10704544
0.06834951 -0.08968161 0.1051462
0.068972304 -0.089828432 0.10528223
0.069569834 -0.090048671 0.10548629
0.070215084 -0.090122074 0.10555428
0.070859857 -0.090195507 0.10562231
0.071479142 -0.090342298 0.10575831
0.072097488 -0.090489119 0.10589434
0.072740391 -0.090562537 0.10596237
0.073382825 -0.09063594 0.10603037
0.067843899 -0.089643359 0.10419451
0.068468794 -0.089789852 0.10433087
0.069116846 -0.089863107 0.10439906
0.06971579 -0.090082839 0.10460359
0.070337877 -0.090229318 0.10473993
0.071008623 -0.090229318 0.10473993
0.071629301 -0.090375811 0.10487629
0.072249055 -0.090522304 0.10501266
0.072918862 -0.090522304 0.10501266
0.073562935 -0.090595543 0.10508083
0.06793838 -0.089826673 0.10344554
0.068588078 -0.089899749 0.10351388
0.069189124 -0.09011896 0.10371891
0.069813095 -0.090265125 0.10385559
0.070509791 -0.09019205 0.10378726
0.071157381 -0.090265125 0.10385559
0.071804494 -0.090338215 0.10392395
0.072476409 -0.090338215 0.10392395
0.073122837 -0.090411291 0.10399228
0.073794506 -0.090411291 0.10399228
0.067358382 -0.090011299 0.10269523
0.067985624 -0.090157107 0.10283226
0.068659648 -0.090157107 0.10283226
0.069309577 -0.090230018 0.10290076
0.069983363 -0.090230018 0.10290076
0.070632592 -0.090302944 0.10296927
0.071306139 -0.090302944 0.10296927
0.071979687 -0.090302944 0.10296927
0.072627984 -0.090375856 0.10303777
0.073301308 -0.090375856 0.10303777
0.073974617 -0.090375856 0.10303777
0.067428552 -0.090269968 0.10201228
0.068103746 -0.090269968 0.10201228
0.068778932 -0.090269968 0.10201228
0.069454126 -0.090269968 0.10201228
0.07012932 -0.090269968 0.10201228
0.070779949 -0.09034273 0.10208096
0.071430109 -0.090415463 0.10214961
0.072104834 -0.090415463 0.10214961
0.072779559 -0.090415463 0.10214961
0.073454283 -0.090415463 0.10214961
0.074154727 -0.09034273 0.10208096
0.067545488 -0.090384498 0.10119063
0.06822186 -0.090384498 0.10119063
0.068874359 -0.090457097 0.10125948
0.06957458 -0.090384498 0.10119063
0.070250943 -0.090384498 0.10119063
0.070902742 -0.090457097 0.10125948
0.071578868 -0.090457097 0.10125948
0.072254993 -0.090457097 0.10125948
0.072931126 -0.090457097 0.10125948
0.073581763 -0.090529665 0.10132831
0.074283384 -0.090457097 0.10125948
0.067662433 -0.090500683 0.10036735
0.068339966 -0.090500683 0.10036735
0.068993635 -0.090573102 0.10043637
0.069695033 -0.090500683 0.10036735
0.070372567 -0.090500683 0.10036735
0.071025535 -0.090573102 0.10043637
0.071702838 -0.090573102 0.10043637
0.072380133 -0.090573102 0.10043637
0.073057435 -0.090573102 0.10043637
0.073734738 -0.090573102 0.10043637
0.074412033 -0.090573102 0.10043637
0.06777937 -0.090618521 0.099542424
0.068434462 -0.090690777 0.099611565
0.069136783 -0.090618521 0.099542424
0.069815487 -0.090618521 0.099542424
0.07049419 -0.090618521 0.099542424
0.071172893 -0.090618521 0.099542424
0.071826808 -0.090690777 0.099611565
0.07250528 -0.090690777 0.099611565
0.073158488 -0.090763032 0.099680766
0.073836721 -0.090763032 0.099680766
0.074514955 -0.090763032 0.099680766
0.067146979 -0.090954274 0.098923817
0.067872927 -0.09081009 0.098785147
0.068552569 -0.09081009 0.098785147
0.069184497 -0.090954274 0.098923817
0.069911852 -0.09081009 0.098785147
0.070591494 -0.09081009 0.098785147
0.071295694 -0.090738028 0.098715812
0.071901187 -0.090954274 0.098923817
0.07258036 -0.090954274 0.098923817
0.073259532 -0.090954274 0.098923817
0.073938712 -0.090954274 0.098923817
0.074617878 -0.090954274 0.098923817
0.067943089 -0.091074929 0.098096073
0.068599813 -0.091146842 0.098165557
0.069303781 -0.091074929 0.098096073
0.069984123 -0.091074929 0.098096073
0.070713118 -0.090931088 0.09795706
0.071393929 -0.090931088 0.09795706
0.07202515 -0.091074929 0.098096073
0.072705492 -0.091074929 0.098096073
0.073385842 -0.091074929 0.098096073
0.074066184 -0.091074929 0.098096073
0.074746527 -0.091074929 0.098096073
0.068106808 -0.091053739 0.097127318
0.068741545 -0.091197252 0.097266644
0.069470771 -0.091053739 0.097127318
0.070104577 -0.091197252 0.097266644
0.070834741 -0.091053739 0.097127318
0.071467601 -0.091197252 0.097266644
0.07214912 -0.091197252 0.097266644
0.072805606 -0.091268986 0.097336307
0.073512152 -0.091197252 0.097266644
0.074193664 -0.091197252 0.097266644
0.074875176 -0.091197252 0.097266644
0.068247139 -0.09110643 0.096226066
0.068906911 -0.091178015 0.096295893
0.069613919 -0.09110643 0.096226066
0.070297301 -0.09110643 0.096226066
0.070980698 -0.09110643 0.096226066
0.071639523 -0.091178015 0.096295893
0.07227309 -0.091321185 0.096435577
0.072955772 -0.091321185 0.096435577
0.073638462 -0.091321185 0.096435577
0.074321151 -0.091321185 0.096435577
0.068387471 -0.091161117 0.095322847
0.069072269 -0.091161117 0.095322847
0.069757059 -0.091161117 0.095322847
0.07044185 -0.091161117 0.095322847
0.071126647 -0.091161117 0.095322847
0.071737759 -0.091375396 0.095532864
0.072397061 -0.091446817 0.09560284
0.073105939 -0.091375396 0.095532864
0.073790029 -0.091375396 0.095532864
0.074474126 -0.091375396 0.095532864
0.067841597 -0.091217816 0.094417647
0.06857457 -0.091075301 0.094277307
0.069214001 -0.091217816 0.094417647
0.069947906 -0.091075301 0.094277307
0.070634574 -0.091075301 0.094277307
0.071272597 -0.091217816 0.094417647
0.071909674 -0.091360331 0.094557986
0.072595403 -0.091360331 0.094557986
0.073306166 -0.091289058 0.094487816
0.073966861 -0.091360331 0.094557986
0.068003677 -0.091205388 0.09344013
0.068691514 -0.091205388 0.09344013
0.069379352 -0.091205388 0.09344013
0.07006719 -0.091205388 0.09344013
0.07080321 -0.091063201 0.093299463
0.071442872 -0.091205388 0.09344013
0.072081596 -0.091347545 0.093580768
0.072768964 -0.091347545 0.093580768
0.073456332 -0.091347545 0.093580768
0.0741437 -0.091347545 0.093580768
0.0681426 -0.091266215 0.092530772
0.068855241 -0.091195285 0.092460245
0.069568336 -0.091124356 0.092389777
0.070258051 -0.091124356 0.092389777
0.070947759 -0.091124356 0.092389777
0.071613155 -0.091195285 0.092460245
0.072278067 -0.091266215 0.092530772
0.072992101 -0.091195285 0.092460245
0.073681578 -0.091195285 0.092460245
0.074345797 -0.091266215 0.092530772
0.068258375 -0.091399774 0.091690093
0.06904234 -0.091116741 0.091407448
0.069733694 -0.091116741 0.091407448
0.070425048 -0.091116741 0.091407448
0.071164578 -0.09097521 0.091266125
0.071832076 -0.091045976 0.091336772
0.072499096 -0.091116741 0.091407448
0.073215246 -0.091045976 0.091336772
0.073881797 -0.091116741 0.091407448
0.074522629 -0.091258273 0.091548771
0.06837415 -0.091535002 0.090847746
0.069159284 -0.09125264 0.090564445
0.069875434 -0.091182038 0.090493605
0.070592038 -0.091111436 0.090422809
0.071285032 -0.091111436 0.090422809
0.071978025 -0.091111436 0.090422809
0.072720133 -0.090970248 0.090281144
0.073413588 -0.090970248 0.090281144
0.07405699 -0.091111436 0.090422809
0.068489917 -0.091671884 0.090003759
0.069276229 -0.091390163 0.089719787
0.069993541 -0.09131974 0.089648798
0.070735186 -0.091178879 0.089506805
0.071477763 -0.091038018 0.089364842
0.072148301 -0.091108456 0.089435846
0.072892047 -0.090967596 0.089293852
0.073562354 -0.091038018 0.089364842
0.074257217 -0.091038018 0.089364842
0.069346391 -0.091669887 0.089015797
0.070182517 -0.091248333 0.088588864
0.070997611 -0.090896994 0.088233069
0.07171867 -0.090826735 0.088161916
0.072415873 -0.090826735 0.088161916
0.073113084 -0.090826735 0.088161916
0.073785499 -0.090896994 0.088233069
0.069697209 -0.091109455 0.08745496
0.070465997 -0.090899155 0.087240964
0.071260035 -0.090618744 0.086955667
0.071911395 -0.09075895 0.087098315
0.072610483 -0.09075895 0.087098315
0.073284999 -0.090829059 0.087169647
0.070820332 -0.090344176 0.085674644
0.071498595 -0.090414107 0.085746124
0.072128214 -0.090623885 0.085960582
0.072829403 -0.090623885 0.085960582
0.073506027 -0.090693831 0.086032078
0.071151048 -0.089863911 0.084174976
0.07176102 -0.09014298 0.0844616
0.072369121 -0.090422049 0.084748223
0.073024005 -0.090561569 0.084891543
0.069699518 -0.088344276 0.081593379
0.070226476 -0.088901088 0.082167953
0.070866637 -0.089109898 0.082383409
0.071552627 -0.089179501 0.082455248
0.072142728 -0.089527503 0.082814336
0.072850943 -0.089527503 0.082814336
0.073559158 -0.089527503 0.082814336
0.071100511 -0.088917315 0.081161782
0.071765229 -0.089056194 0.081305757
0.072524436 -0.088917315 0.081161782
0.073188215 -0.089056194 0.081305757
0 0 0 1 0 0 0 1 0 0 0 1 0 0 0 0 0 532 1 0 0
