ply
format ascii 1.0
comment PCL generated
element vertex 531
property float x
property float y
property float z
element camera 1
property float view_px
property float view_py
property float view_pz
property float x_axisx
property float x_axisy
property float x_axisz
property float y_axisx
property float y_axisy
property float y_axisz
property float z_axisx
property float z_axisy
property float z_axisz
property float focal
property float scalex
property float scaley
property float centerx
property float centery
property int viewportx
property int viewporty
property float k1
property float k2
end_header
0.069188789 -0.088351905 0.13136606
0.069818549 -0.088351905 0.13136606
0.070422105 -0.088430643 0.13142878
0.071025193 -0.088509321 0.13149148
0.067878753 -0.0889543 0.13104652
0.068508044 -0.0889543 0.13104652
0.069137327 -0.0889543 0.13104652
0.069792576 -0.088875771 0.13098364
0.070395909 -0.0889543 0.13104652
0.071025193 -0.0889543 0.13104652
0.071627811 -0.089032859 0.1311094
0.072229974 -0.089111388 0.13117227
0.067199402 -0.089556038 0.13072763
0.067853481 -0.089477658 0.13066459
0.068482541 -0.089477658 0.13066459
0.069137327 -0.089399278 0.13060154
0.069766618 -0.089399278 0.13060154
0.070369706 -0.089477658 0.13066459
0.070998751 -0.089477658 0.13066459
0.071574479 -0.089634418 0.13079068
0.072176166 -0.089712799 0.13085373
0.072804518 -0.089712799 0.13085373
0.073405497 -0.089791179 0.13091677
0.066545784 -0.090078905 0.13034621
0.067199402 -0.090000674 0.130283
0.067828223 -0.090000674 0.130283
0.068457045 -0.090000674 0.130283
0.069085866 -0.090000674 0.130283
0.069714688 -0.090000674 0.130283
0.070343509 -0.090000674 0.130283
0.070972323 -0.090000674 0.130283
0.071574479 -0.090078905 0.13034621
0.072176166 -0.090157107 0.13040942
0.072750241 -0.090313539 0.13053584
0.073350765 -0.090391725 0.13059902
0.073978417 -0.090391725 0.13059902
0.066496201 -0.090679482 0.13002849
0.067149349 -0.090601414 0.1299651
0.067777701 -0.090601414 0.1299651
0.068406053 -0.090601414 0.1299651
0.069060132 -0.090523377 0.12990174
0.069662757 -0.090601414 0.1299651
0.070317306 -0.090523377 0.12990174
0.070945889 -0.090523377 0.12990174
0.071494475 -0.090757519 0.13009186
0.072122365 -0.090757519 0.13009186
0.072723113 -0.090835541 0.13015521
0.073323391 -0.090913609 0.1302186
0.073923208 -0.090991646 0.13028197
0.066471405 -0.091201499 0.12964788
0.067099288 -0.091201499 0.12964788
0.067727178 -0.091201499 0.12964788
0.068380557 -0.091123626 0.12958434
0.069008671 -0.091123626 0.12958434
0.069636784 -0.091123626 0.12958434
0.070264906 -0.091123626 0.12958434
0.070893019 -0.091123626 0.12958434
0.071467817 -0.091279358 0.12971139
0.072122365 -0.091201499 0.12964788
0.072695971 -0.091357261 0.12977494
0.073323391 -0.091357261 0.12977494
0.073923208 -0.091435134 0.12983848
0.07452254 -0.091513023 0.12990203
0.066446617 -0.091723174 0.12926759
0.067099288 -0.091645479 0.1292039
0.067727178 -0.091645479 0.1292039
0.068355061 -0.091645479 0.1292039
0.068982944 -0.091645479 0.1292039
0.069636784 -0.09156777 0.1291402
0.070264906 -0.09156777 0.1291402
0.070893019 -0.09156777 0.1291402
0.071494475 -0.091645479 0.1292039
0.072095469 -0.091723174 0.12926759
0.072723113 -0.091723174 0.12926759
0.073296025 -0.091878608 0.12939501
0.073923208 -0.091878608 0.12939501
0.07452254 -0.091956347 0.12945871
0.066421822 -0.092244551 0.12888765
0.067074262 -0.09216699 0.12882377
0.067701921 -0.09216699 0.12882377
0.068329573 -0.09216699 0.12882377
0.068982944 -0.092089459 0.12875992
0.069636784 -0.092011914 0.12869605
0.070264906 -0.092011914 0.12869605
0.070893019 -0.092011914 0.12869605
0.071494475 -0.092089459 0.12875992
0.072122365 -0.092089459 0.12875992
0.072695971 -0.092244551 0.12888765
0.073323391 -0.092244551 0.12888765
0.073923208 -0.092322096 0.12895152
0.07452254 -0.092399657 0.1290154
0.067049235 -0.092688203 0.128444
0.067701921 -0.092610806 0.12837996
0.068329573 -0.092610806 0.12837996
0.068957217 -0.092610806 0.12837996
0.069636784 -0.092456073 0.1282519
0.070264906 -0.092456073 0.1282519
0.070919462 -0.092378676 0.12818785
0.071521141 -0.092456073 0.1282519
0.072122365 -0.092533439 0.12831593
0.072750241 -0.092533439 0.12831593
0.073323391 -0.092688203 0.128444
0.073950805 -0.092688203 0.128444
0.074550383 -0.092765585 0.12850803
0.067676648 -0.093131855 0.12800035
0.068406053 -0.092822984 0.12774354
0.069060132 -0.092745766 0.12767935
0.069740646 -0.09259133 0.12755093
0.070343509 -0.092668533 0.12761512
0.070998751 -0.09259133 0.12755093
0.071601145 -0.092668533 0.12761512
0.072203062 -0.092745766 0.12767935
0.072777376 -0.092900217 0.12780775
0.073405497 -0.092900217 0.12780775
0.073950805 -0.093131855 0.12800035
0.074550383 -0.093209058 0.12806454
0.067752436 -0.093344361 0.12736361
0.068482541 -0.09303613 0.12710613
0.069111593 -0.09303613 0.12710613
0.069740646 -0.09303613 0.12710613
0.070422105 -0.092882037 0.12697738
0.07105162 -0.092882037 0.12697738
0.071681149 -0.092882037 0.12697738
0.072256871 -0.09303613 0.12710613
0.072885916 -0.09303613 0.12710613
0.073460236 -0.093190253 0.12723486
0.073978417 -0.093498439 0.12749232
0.068661012 -0.092942744 0.12620957
0.069317438 -0.09286584 0.12614504
0.069948368 -0.09286584 0.12614504
0.070605494 -0.092788965 0.1260805
0.071236648 -0.092788965 0.1260805
0.071841151 -0.09286584 0.12614504
0.07241828 -0.09301962 0.12627411
0.072967328 -0.093250275 0.12646769
0.073542349 -0.093404055 0.12659676
0.074088827 -0.093634725 0.12679039
0.06942036 -0.093005091 0.12544011
0.070052229 -0.093005091 0.12544011
0.070736483 -0.092851654 0.12531072
0.071315952 -0.093005091 0.12544011
0.071921147 -0.093081817 0.12550482
0.072498977 -0.093235269 0.12563421
0.073075868 -0.093388706 0.12576361
0.073624454 -0.09361887 0.12595771
0.069832042 -0.092226982 0.12395546
0.070441693 -0.092303559 0.12402034
0.071050875 -0.092380106 0.12408519
0.071659572 -0.092456669 0.12415007
0.072267823 -0.092533216 0.12421492
0.0728487 -0.092686325 0.12434466
0.073211551 -0.093451887 0.12499331
0.070909053 -0.09137781 0.12240049
0.07136526 -0.091912538 0.12285571
0.071976773 -0.091988921 0.12292074
0.072694495 -0.091759741 0.12272564
0.073225319 -0.092065319 0.12298578
0.070423841 -0.091372713 0.12155706
0.071038872 -0.091448948 0.12162226
0.071653441 -0.091525167 0.12168746
0.072241105 -0.091677606 0.12181784
0.072854504 -0.091753826 0.12188303
0.070732601 -0.090913266 0.12031946
0.071194664 -0.091445684 0.12077698
0.071863025 -0.091369629 0.12071164
0.072611161 -0.091065377 0.12045018
0.070165284 -0.091140836 0.11966763
0.070809789 -0.091140836 0.11966763
0.071428344 -0.091216713 0.11973315
0.072046429 -0.09129259 0.11979868
0.072690465 -0.09129259 0.11979868
0.073334508 -0.09129259 0.11979868
0.073978558 -0.09129259 0.11979868
0.069773391 -0.090839282 0.11855495
0.070394747 -0.090915009 0.11862066
0.07104136 -0.090915009 0.11862066
0.071636058 -0.091066465 0.11875202
0.072229818 -0.091217905 0.11888342
0.072849058 -0.091293648 0.11894912
0.073494509 -0.091293648 0.11894912
0.07413996 -0.091293648 0.11894912
0.069950223 -0.090767741 0.11763655
0.070573226 -0.09084329 0.11770241
0.071221478 -0.09084329 0.11770241
0.071843773 -0.090918869 0.11776827
0.072413206 -0.091145545 0.11796583
0.073034085 -0.091221109 0.11803171
0.07365451 -0.091296673 0.11809756
0.074301369 -0.091296673 0.11809756
0.069552004 -0.090472341 0.11651775
0.07015232 -0.090623111 0.11664979
0.070777193 -0.09069851 0.11671583
0.071350127 -0.090924695 0.11691388
0.071973592 -0.09100011 0.11697993
0.072544202 -0.091226295 0.11717799
0.073166259 -0.09130168 0.11724402
0.073814519 -0.09130168 0.11724402
0.074462779 -0.09130168 0.11724402
0.069752224 -0.090330675 0.11552802
0.070329152 -0.090556368 0.11572659
0.070879176 -0.090857297 0.11599134
0.071504503 -0.090932548 0.11605754
0.072103426 -0.09108299 0.11618991
0.072648995 -0.091383904 0.11645468
0.073271982 -0.09145917 0.11652087
0.073894516 -0.091534376 0.11658706
0.074516572 -0.091609612 0.11665326
0.069297872 -0.090191677 0.11453563
0.069877364 -0.090416893 0.11473471
0.070455462 -0.090642095 0.11493376
0.071032159 -0.090867266 0.11513284
0.071633168 -0.09101741 0.11526555
0.072207272 -0.091242626 0.11546463
0.072779991 -0.091467813 0.11566368
0.073377714 -0.091617942 0.1157964
0.074027851 -0.091617942 0.1157964
0.074651085 -0.091692999 0.11586276
0.069421835 -0.090280041 0.11374018
0.070002504 -0.090504766 0.11393975
0.070607036 -0.090654537 0.11407277
0.071185127 -0.090879261 0.11427234
0.071761817 -0.091103956 0.1144719
0.072337106 -0.091328636 0.11467147
0.072884783 -0.091628253 0.11493756
0.073483452 -0.09177804 0.1150706
0.074107848 -0.091852963 0.11513713
0.069060795 -0.089846939 0.11247624
0.069620185 -0.090145871 0.11274299
0.07015267 -0.090519547 0.11307642
0.070758604 -0.090669006 0.1132098
0.07133811 -0.090893209 0.11340986
0.0719162 -0.091117397 0.11360991
0.072492883 -0.091341615 0.11380999
0.073041968 -0.091640562 0.11407673
0.073642053 -0.091790006 0.1142101
0.074267857 -0.09186475 0.1142768
0.068791434 -0.089119509 0.11094093
0.069183588 -0.089939758 0.11167631
0.069719359 -0.090312615 0.11201057
0.070302837 -0.090536296 0.11221112
0.070884913 -0.090760022 0.11241169
0.071465589 -0.090983734 0.11261223
0.072044849 -0.09120743 0.11281279
0.072596744 -0.091505706 0.1130802
0.073199168 -0.091654837 0.11321391
0.073800638 -0.091803983 0.11334762
0.069010362 -0.088918209 0.10986944
0.069355503 -0.089885443 0.11074068
0.069868118 -0.090331852 0.11114277
0.070427977 -0.090629473 0.11141086
0.071036488 -0.090778291 0.11154489
0.071618564 -0.091001481 0.11174594
0.072199225 -0.0912247 0.11194701
0.072752535 -0.091522306 0.11221506
0.07335636 -0.091671109 0.11234911
0.073959239 -0.091819927 0.11248314
0.06950286 -0.089907676 0.10986991
0.070016876 -0.090353101 0.11027302
0.07060317 -0.090575814 0.11047457
0.071188062 -0.090798512 0.11067611
0.071746044 -0.091095477 0.11094485
0.072327882 -0.091318175 0.11114639
0.07290832 -0.091540903 0.11134796
0.073513545 -0.091689393 0.11148232
0.069723897 -0.089709684 0.10879511
0.070215225 -0.090228185 0.10926655
0.070878476 -0.090228185 0.10926655
0.071390152 -0.090672627 0.10967065
0.071924515 -0.091042981 0.11000741
0.072559454 -0.091117054 0.11007473
0.073142 -0.091339275 0.11027679
0.068948209 -0.088479981 0.10677212
0.069399558 -0.089145139 0.10737976
0.069895811 -0.089662492 0.10785235
0.07043837 -0.090032011 0.10818993
0.071028642 -0.090253726 0.10839248
0.071592249 -0.09054935 0.10866253
0.072179474 -0.090771094 0.10886508
0.072765291 -0.090992808 0.10906763
0.073401645 -0.091066688 0.10913514
0.068325654 -0.08880645 0.1061628
0.068948209 -0.088953942 0.10629816
0.069496863 -0.089322656 0.10663655
0.070043169 -0.089691341 0.10697497
0.070661515 -0.089838833 0.10711032
0.071253896 -0.09006004 0.10731336
0.071819603 -0.090355009 0.10758407
0.072408937 -0.090576246 0.10778713
0.073022604 -0.090723708 0.10792249
0.073687255 -0.090723708 0.10792249
0.068444937 -0.088912874 0.10534929
0.068996392 -0.089280739 0.10568851
0.069569834 -0.089575052 0.10595991
0.070215084 -0.089648619 0.10602775
0.070810273 -0.089869335 0.10623127
0.071404055 -0.090090081 0.10643482
0.0720217 -0.09023723 0.10657053
0.072587416 -0.090531513 0.10684189
0.073254175 -0.090531513 0.10684189
0.07389497 -0.090605095 0.10690975
0.068468794 -0.089314565 0.10480615
0.069092758 -0.089461386 0.10494219
0.06971579 -0.089608222 0.10507821
0.070337877 -0.089755028 0.10521422
0.070959032 -0.08990185 0.10535026
0.071554221 -0.090122074 0.10555428
0.072198533 -0.090195507 0.10562231
0.072842374 -0.09026891 0.1056903
0.073511474 -0.09026891 0.1056903
0.074154615 -0.090342298 0.10575831
0.068516508 -0.089643359 0.10419451
0.069189124 -0.089643359 0.10419451
0.069813095 -0.089789852 0.10433087
0.07043612 -0.089936346 0.10446723
0.071107797 -0.089936346 0.10446723
0.071704395 -0.090156063 0.10467175
0.072350107 -0.090229318 0.10473993
0.073020846 -0.090229318 0.10473993
0.073691584 -0.090229318 0.10473993
0.067962006 -0.089753583 0.10337719
0.068611935 -0.089826673 0.10344554
0.069261394 -0.089899749 0.10351388
0.069910392 -0.089972809 0.1035822
0.070534356 -0.09011896 0.10371891
0.071206972 -0.09011896 0.10371891
0.071854554 -0.09019205 0.10378726
0.072526939 -0.09019205 0.10378726
0.073173828 -0.090265125 0.10385559
0.073845968 -0.090265125 0.10385559
0.074518122 -0.090265125 0.10385559
0.068032876 -0.090011299 0.10269523
0.068707362 -0.090011299 0.10269523
0.069381848 -0.090011299 0.10269523
0.070007689 -0.090157107 0.10283226
0.070681706 -0.090157107 0.10283226
0.071330935 -0.090230018 0.10290076
0.072004721 -0.090230018 0.10290076
0.072678514 -0.090230018 0.10290076
0.0733523 -0.090230018 0.10290076
0.074026078 -0.090230018 0.10290076
0.074699871 -0.090230018 0.10290076
0.068150982 -0.090124488 0.10187493
0.068826646 -0.090124488 0.10187493
0.069502302 -0.090124488 0.10187493
0.07012932 -0.090269968 0.10201228
0.070853621 -0.090124488 0.10187493
0.071479701 -0.090269968 0.10201228
0.072129861 -0.09034273 0.10208096
0.072804816 -0.09034273 0.10208096
0.073479779 -0.09034273 0.10208096
0.074180469 -0.090269968 0.10201228
0.07482969 -0.09034273 0.10208096
0.068245478 -0.09031193 0.10112181
0.068898216 -0.090384498 0.10119063
0.06957458 -0.090384498 0.10119063
0.070250943 -0.090384498 0.10119063
0.070927307 -0.090384498 0.10119063
0.071603663 -0.090384498 0.10119063
0.072254993 -0.090457097 0.10125948
0.072956391 -0.090384498 0.10119063
0.073607258 -0.090457097 0.10125948
0.074283384 -0.090457097 0.10125948
0.0690175 -0.090500683 0.10036735
0.069695033 -0.090500683 0.10036735
0.070372567 -0.090500683 0.10036735
0.071025535 -0.090573102 0.10043637
0.071702838 -0.090573102 0.10043637
0.072380133 -0.090573102 0.10043637
0.073057435 -0.090573102 0.10043637
0.073709242 -0.090645522 0.10050537
0.074386306 -0.090645522 0.10050537
0.075089335 -0.090573102 0.10043637
0.068434462 -0.090690777 0.099611565
0.069112927 -0.090690777 0.099611565
0.069791399 -0.090690777 0.099611565
0.070469871 -0.090690777 0.099611565
0.071148336 -0.090690777 0.099611565
0.071826808 -0.090690777 0.099611565
0.07250528 -0.090690777 0.099611565
0.073158488 -0.090763032 0.099680766
0.073836721 -0.090763032 0.099680766
0.074514955 -0.090763032 0.099680766
0.075193189 -0.090763032 0.099680766
0.067872927 -0.09081009 0.098785147
0.068505324 -0.090954274 0.098923817
0.069184497 -0.090954274 0.098923817
0.06986367 -0.090954274 0.098923817
0.070542842 -0.090954274 0.098923817
0.071197458 -0.091026351 0.098993152
0.071901187 -0.090954274 0.098923817
0.072555333 -0.091026351 0.098993152
0.073259532 -0.090954274 0.098923817
0.073913217 -0.091026351 0.098993152
0.074592151 -0.091026351 0.098993152
0.067262746 -0.091074929 0.098096073
0.067943089 -0.091074929 0.098096073
0.068623438 -0.091074929 0.098096073
0.069303781 -0.091074929 0.098096073
0.069984123 -0.091074929 0.098096073
0.070664465 -0.091074929 0.098096073
0.071320251 -0.091146842 0.098165557
0.072000362 -0.091146842 0.098165557
0.072680473 -0.091146842 0.098165557
0.073385842 -0.091074929 0.098096073
0.074040696 -0.091146842 0.098165557
0.0747208 -0.091146842 0.098165557
0.068130195 -0.090981975 0.097057641
0.068812415 -0.090981975 0.097057641
0.069494635 -0.090981975 0.097057641
0.070176847 -0.090981975 0.097057641
0.070859075 -0.090981975 0.097057641
0.071516722 -0.091053739 0.097127318
0.07214912 -0.091197252 0.097266644
0.072880685 -0.091053739 0.097127318
0.073562674 -0.091053739 0.097127318
0.074193664 -0.091197252 0.097266644
0.074849449 -0.091268986 0.097336307
0.068293914 -0.090963259 0.096086398
0.068977773 -0.090963259 0.096086398
0.069661632 -0.090963259 0.096086398
0.070345484 -0.090963259 0.096086398
0.070980698 -0.09110643 0.096226066
0.07166408 -0.09110643 0.096226066
0.072322682 -0.091178015 0.096295893
0.073005833 -0.091178015 0.096295893
0.073688991 -0.091178015 0.096295893
0.074321151 -0.091321185 0.096435577
0.067109562 -0.090875447 0.095042869
0.067818448 -0.090804011 0.094972864
0.068481021 -0.090875447 0.095042869
0.069119513 -0.091018274 0.095182836
0.069780916 -0.091089696 0.095252857
0.070490032 -0.091018274 0.095182836
0.071126647 -0.091161117 0.095322847
0.07178688 -0.091232553 0.095392853
0.072421849 -0.091375396 0.095532864
0.073181026 -0.091161117 0.095322847
0.073840559 -0.091232553 0.095392853
0.067934215 -0.090932786 0.094136983
0.068597965 -0.091004029 0.094207138
0.069284871 -0.091004029 0.094207138
0.06997177 -0.091004029 0.094207138
0.070634574 -0.091075301 0.094277307
0.071272597 -0.091217816 0.094417647
0.071958795 -0.091217816 0.094417647
0.072620198 -0.091289058 0.094487816
0.073331185 -0.091217816 0.094417647
0.073966861 -0.091360331 0.094557986
0.067384608 -0.090992108 0.093229115
0.068119451 -0.090849921 0.093088448
0.068738289 -0.091063201 0.093299463
0.069450229 -0.090992108 0.093229115
0.070138767 -0.090992108 0.093229115
0.070779122 -0.091134295 0.093369782
0.071467198 -0.091134295 0.093369782
0.072081596 -0.091347545 0.093580768
0.072768964 -0.091347545 0.093580768
0.073506378 -0.091205388 0.09344013
0.0741437 -0.091347545 0.093580768
0.067499205 -0.091124356 0.092389777
0.068235219 -0.090982497 0.092248783
0.068878621 -0.091124356 0.092389777
0.069615588 -0.090982497 0.092248783
0.070305765 -0.090982497 0.092248783
0.070995942 -0.090982497 0.092248783
0.071637474 -0.091124356 0.092389777
0.072302625 -0.091195285 0.092460245
0.072992101 -0.091195285 0.092460245
0.073681578 -0.091195285 0.092460245
0.067613803 -0.091258273 0.091548771
0.068350993 -0.091116741 0.091407448
0.069065735 -0.091045976 0.091336772
0.06982819 -0.090833694 0.091124788
0.070472762 -0.09097521 0.091266125
0.071164578 -0.09097521 0.091266125
0.071856402 -0.09097521 0.091266125
0.072523661 -0.091045976 0.091336772
0.073215246 -0.091045976 0.091336772
0.073881797 -0.091116741 0.091407448
0.074573152 -0.091116741 0.091407448
0.067774236 -0.09125264 0.090564445
0.068489917 -0.091182038 0.090493605
0.069206059 -0.091111436 0.090422809
0.069946297 -0.090970248 0.090281144
0.070663616 -0.090899646 0.090210304
0.071381398 -0.090829059 0.090139478
0.072051004 -0.090899646 0.090210304
0.072720133 -0.090970248 0.090281144
0.073413588 -0.090970248 0.090281144
0.07405699 -0.091111436 0.090422809
0.068605691 -0.09131974 0.089648798
0.069369778 -0.091108456 0.089435846
0.070088036 -0.091038018 0.089364842
0.070806749 -0.090967596 0.089293852
0.071477763 -0.091038018 0.089364842
0.072196953 -0.090967596 0.089293852
0.07286749 -0.091038018 0.089364842
0.073562354 -0.091038018 0.089364842
0.074257217 -0.091038018 0.089364842
0.069416553 -0.09145911 0.088802338
0.070253395 -0.091037527 0.088375375
0.070997611 -0.090896994 0.088233069
0.071694583 -0.090896994 0.088233069
0.072415873 -0.090826735 0.088161916
0.073113084 -0.090826735 0.088161916
0.073785499 -0.090896994 0.088233069
0.069673829 -0.091179535 0.087526262
0.070560485 -0.090618744 0.086955667
0.071260035 -0.090618744 0.086955667
0.071911395 -0.09075895 0.087098315
0.072659135 -0.090618744 0.086955667
0.073309556 -0.09075895 0.087098315
0.073983841 -0.090829059 0.087169647
0.070001259 -0.090693831 0.086032078
0.070796706 -0.090414107 0.085746124
0.071498595 -0.090414107 0.085746124
0.072176397 -0.090484008 0.085817605
0.072829403 -0.090623885 0.085960582
0.073506027 -0.090693831 0.086032078
0.07030531 -0.090282515 0.084604919
0.071103804 -0.090003446 0.08431828
0.07176102 -0.09014298 0.0844616
0.072393216 -0.090352282 0.084676549
0.073121309 -0.090282515 0.084604919
0.073776186 -0.090422049 0.084748223
0.07077308 -0.089388296 0.082670689
0.071529008 -0.089249104 0.082527041
0.072166584 -0.089457914 0.082742527
0.072850943 -0.089527503 0.082814336
0.073583476 -0.089457914 0.082742527
0.074267372 -0.089527503 0.082814336
0 0 0 1 0 0 0 1 0 0 0 1 0 0 0 0 0 531 1 0 0
