ply
format ascii 1.0
comment PCL generated
element vertex 494
property float x
property float y
property float z
element camera 1
property float view_px
property float view_py
property float view_pz
property float x_axisx
property float x_axisy
property float x_axisz
property float y_axisx
property float y_axisy
property float y_axisz
property float z_axisx
property float z_axisy
property float z_axisz
property float focal
property float scalex
property float scaley
property float centerx
property float centery
property int viewportx
property int viewporty
property float k1
property float k2
end_header
0.069085866 -0.088666752 0.13161692
0.069714688 -0.088666752 0.13161692
0.070343509 -0.088666752 0.13161692
0.070945889 -0.088745475 0.13167964
0.067802958 -0.089189947 0.13123517
0.068406053 -0.089268491 0.13129804
0.069060132 -0.089189947 0.13123517
0.069714688 -0.089111388 0.13117227
0.070291109 -0.089268491 0.13129804
0.070919462 -0.089268491 0.13129804
0.071521141 -0.089347035 0.13136092
0.072149262 -0.089347035 0.13136092
0.067149349 -0.089712799 0.13085373
0.067752436 -0.089791179 0.13091677
0.068406053 -0.089712799 0.13085373
0.069034405 -0.089712799 0.13085373
0.069688715 -0.089634418 0.13079068
0.070317306 -0.089634418 0.13079068
0.070919462 -0.089712799 0.13085373
0.071521141 -0.089791179 0.13091677
0.072122365 -0.089869559 0.13097982
0.072723113 -0.089947909 0.13104284
0.067099288 -0.090313539 0.13053584
0.067727178 -0.090313539 0.13053584
0.068380557 -0.090235338 0.13047263
0.069008671 -0.090235338 0.13047263
0.069636784 -0.090235338 0.13047263
0.070291109 -0.090157107 0.13040942
0.070893019 -0.090235338 0.13047263
0.071494475 -0.090313539 0.13053584
0.072122365 -0.090313539 0.13053584
0.072695971 -0.090469956 0.13066225
0.073323391 -0.090469956 0.13066225
0.066446617 -0.090835541 0.13015521
0.067074262 -0.090835541 0.13015521
0.067701921 -0.090835541 0.13015521
0.068355061 -0.090757519 0.13009186
0.068982944 -0.090757519 0.13009186
0.069610827 -0.090757519 0.13009186
0.070238717 -0.090757519 0.13009186
0.070866592 -0.090757519 0.13009186
0.071467817 -0.090835541 0.13015521
0.072068557 -0.090913609 0.1302186
0.072695971 -0.090913609 0.1302186
0.073296025 -0.090991646 0.13028197
0.073923208 -0.090991646 0.13028197
0.065769851 -0.091435134 0.12983848
0.066397026 -0.091435134 0.12983848
0.067049235 -0.091357261 0.12977494
0.067676648 -0.091357261 0.12977494
0.068329573 -0.091279358 0.12971139
0.068957217 -0.091279358 0.12971139
0.069584869 -0.091279358 0.12971139
0.070212521 -0.091279358 0.12971139
0.070840165 -0.091279358 0.12971139
0.071467817 -0.091279358 0.12971139
0.072068557 -0.091357261 0.12977494
0.072695971 -0.091357261 0.12977494
0.073296025 -0.091435134 0.12983848
0.073895596 -0.091513023 0.12990203
0.07452254 -0.091513023 0.12990203
0.065745287 -0.091956347 0.12945871
0.066397026 -0.091878608 0.12939501
0.067049235 -0.091800898 0.12933129
0.067651391 -0.091878608 0.12939501
0.068304069 -0.091800898 0.12933129
0.068931475 -0.091800898 0.12933129
0.069584869 -0.091723174 0.12926759
0.070212521 -0.091723174 0.12926759
0.070840165 -0.091723174 0.12926759
0.071467817 -0.091723174 0.12926759
0.072041661 -0.091878608 0.12939501
0.072695971 -0.091800898 0.12933129
0.073296025 -0.091878608 0.12939501
0.073923208 -0.091878608 0.12939501
0.07452254 -0.091956347 0.12945871
0.066372231 -0.092399657 0.1290154
0.066999175 -0.092399657 0.1290154
0.067651391 -0.092322096 0.12895152
0.068278573 -0.092322096 0.12895152
0.068931475 -0.092244551 0.12888765
0.069584869 -0.09216699 0.12882377
0.070238717 -0.092089459 0.12875992
0.070840165 -0.09216699 0.12882377
0.071467817 -0.09216699 0.12882377
0.072068557 -0.092244551 0.12888765
0.072695971 -0.092244551 0.12888765
0.073323391 -0.092244551 0.12888765
0.073923208 -0.092322096 0.12895152
0.07452254 -0.092399657 0.1290154
0.066372231 -0.092842981 0.12857208
0.067024209 -0.092765585 0.12850803
0.067651391 -0.092765585 0.12850803
0.068278573 -0.092765585 0.12850803
0.068957217 -0.092610806 0.12837996
0.069610827 -0.092533439 0.12831593
0.070238717 -0.092533439 0.12831593
0.070866592 -0.092533439 0.12831593
0.071494475 -0.092533439 0.12831593
0.072122365 -0.092533439 0.12831593
0.072723113 -0.092610806 0.12837996
0.073323391 -0.092688203 0.128444
0.073950805 -0.092688203 0.128444
0.074550383 -0.092765585 0.12850803
0.067024209 -0.093209058 0.12806454
0.067651391 -0.093209058 0.12806454
0.068329573 -0.093054622 0.12793614
0.069008671 -0.092900217 0.12780775
0.069662757 -0.092822984 0.12774354
0.070317306 -0.092745766 0.12767935
0.070945889 -0.092745766 0.12767935
0.071574479 -0.092745766 0.12767935
0.072149262 -0.092900217 0.12780775
0.072777376 -0.092900217 0.12780775
0.073350765 -0.093054622 0.12793614
0.073950805 -0.093131855 0.12800035
0.067676648 -0.093575507 0.1275567
0.068380557 -0.093344361 0.12736361
0.069008671 -0.093344361 0.12736361
0.069662757 -0.093267292 0.12729923
0.070291109 -0.093267292 0.12729923
0.070945889 -0.093190253 0.12723486
0.071627811 -0.09303613 0.12710613
0.072229974 -0.093113184 0.12717049
0.072831646 -0.093190253 0.12723486
0.07343287 -0.093267292 0.12729923
0.074006014 -0.0934214 0.12742797
0.067853481 -0.093480945 0.12666132
0.068533532 -0.09332718 0.12653224
0.069214515 -0.0931734 0.12640318
0.069844507 -0.0931734 0.12640318
0.070526898 -0.09301962 0.12627411
0.071183786 -0.092942744 0.12620957
0.071734481 -0.0931734 0.12640318
0.072310671 -0.09332718 0.12653224
0.072913058 -0.093404055 0.12659676
0.07348761 -0.093557835 0.12672584
0.06815663 -0.093005091 0.12544011
0.068763003 -0.093081817 0.12550482
0.069394626 -0.093081817 0.12550482
0.070052229 -0.093005091 0.12544011
0.070684098 -0.093005091 0.12544011
0.071289517 -0.093081817 0.12550482
0.071894489 -0.093158528 0.12556949
0.072472081 -0.093311965 0.12569889
0.072967328 -0.093695566 0.1260224
0.073597088 -0.093695566 0.1260224
0.069119945 -0.092456669 0.12415007
0.069806308 -0.092303559 0.12402034
0.070389763 -0.092456669 0.12415007
0.070867486 -0.092915997 0.12453926
0.071580283 -0.092686325 0.12434466
0.072214492 -0.092686325 0.12434466
0.072020225 -0.090913266 0.12031946
0.070165284 -0.091140836 0.11966763
0.070809789 -0.091140836 0.11966763
0.071480274 -0.09106493 0.1196021
0.072151214 -0.090989038 0.11953658
0.072849058 -0.09083724 0.11940552
0.073521182 -0.090761334 0.11933997
0.069697611 -0.091066465 0.11875202
0.070343763 -0.091066465 0.11875202
0.071015634 -0.090990737 0.11868635
0.071662024 -0.090990737 0.11868635
0.072334602 -0.090915009 0.11862066
0.073007658 -0.090839282 0.11855495
0.073681176 -0.090763554 0.11848927
0.074435875 -0.090460643 0.1182265
0.069276705 -0.09084329 0.11770241
0.069899701 -0.090918869 0.11776827
0.07054773 -0.090918869 0.11776827
0.071195744 -0.090918869 0.11776827
0.071843773 -0.090918869 0.11776827
0.072518006 -0.09084329 0.11770241
0.073192686 -0.090767741 0.11763655
0.073841184 -0.090767741 0.11763655
0.069451898 -0.09077391 0.11678185
0.070051275 -0.090924695 0.11691388
0.070700705 -0.090924695 0.11691388
0.071350127 -0.090924695 0.11691388
0.071973592 -0.09100011 0.11697993
0.072648995 -0.090924695 0.11691388
0.073351286 -0.09077391 0.11678185
0.074001186 -0.09077391 0.11678185
0.074651085 -0.09077391 0.11678185
0.069627091 -0.09070684 0.11585897
0.070253365 -0.090782076 0.11592516
0.070904672 -0.090782076 0.11592516
0.071504503 -0.090932548 0.11605754
0.072129384 -0.091007754 0.11612374
0.072779991 -0.091007754 0.11612374
0.073404156 -0.09108299 0.11618991
0.074081182 -0.091007754 0.11612374
0.07473179 -0.091007754 0.11612374
0.069173895 -0.090567023 0.11486742
0.069802284 -0.090642095 0.11493376
0.070430197 -0.090717167 0.11500014
0.071032159 -0.090867266 0.11513284
0.071633168 -0.09101741 0.11526555
0.072233245 -0.091167539 0.11539826
0.072858579 -0.091242626 0.11546463
0.073483452 -0.091317669 0.11553097
0.074107848 -0.091392756 0.11559734
0.07478559 -0.091317669 0.11553097
0.069372252 -0.090429857 0.11387321
0.069977477 -0.090579659 0.11400625
0.070607036 -0.090654537 0.11407277
0.071185127 -0.090879261 0.11427234
0.071736082 -0.091178864 0.11453845
0.072337106 -0.091328636 0.11467147
0.072989583 -0.091328636 0.11467147
0.073615611 -0.091403559 0.11473799
0.074241191 -0.091478452 0.11480451
0.074839398 -0.091628253 0.11493756
0.069085352 -0.08977221 0.11240956
0.069521002 -0.090444818 0.11300975
0.07015267 -0.090519547 0.11307642
0.070758604 -0.090669006 0.1132098
0.07133811 -0.090893209 0.11340986
0.0719162 -0.091117397 0.11360991
0.072492883 -0.091341615 0.11380999
0.073094368 -0.091491088 0.11394337
0.073747776 -0.091491088 0.11394337
0.074401192 -0.091491088 0.11394337
0.069109917 -0.090163469 0.11187686
0.069719359 -0.090312615 0.11201057
0.070302837 -0.090536296 0.11221112
0.070884913 -0.090760022 0.11241169
0.071516581 -0.090834588 0.11247854
0.072096311 -0.091058284 0.11267908
0.072700605 -0.09120743 0.11281279
0.073277757 -0.091431141 0.11301337
0.073906377 -0.091505706 0.1130802
0.068621159 -0.090108648 0.11094174
0.06923271 -0.090257466 0.11107577
0.069843322 -0.090406269 0.11120979
0.070427977 -0.090629473 0.11141086
0.071036488 -0.090778291 0.11154489
0.07164406 -0.090927079 0.11167893
0.072250687 -0.091075897 0.11181296
0.072830424 -0.091299102 0.11201403
0.073461153 -0.091373518 0.11208105
0.074091405 -0.09144792 0.11214805
0.068718463 -0.090278864 0.11020581
0.069330946 -0.090427339 0.11034019
0.069917709 -0.090650052 0.11054173
0.070553109 -0.090724304 0.11060894
0.071188062 -0.090798512 0.11067611
0.071746044 -0.091095477 0.11094485
0.072379336 -0.09116973 0.11101204
0.072960243 -0.091392428 0.11121358
0.073618345 -0.091392428 0.11121358
0.074250005 -0.091466665 0.11128075
0.068297759 -0.090005979 0.10906452
0.068888739 -0.090228185 0.10926655
0.06950286 -0.090376332 0.10940126
0.070116051 -0.09052448 0.10953596
0.070753336 -0.090598539 0.10960329
0.071364895 -0.090746686 0.10973799
0.071975507 -0.090894833 0.1098727
0.072533719 -0.091191128 0.11014211
0.073167965 -0.091265187 0.11020944
0.073827937 -0.091265187 0.11020944
0.074487902 -0.091265187 0.11020944
0.068418212 -0.090105921 0.10825744
0.069059014 -0.090179831 0.10832496
0.069674775 -0.09032765 0.10845999
0.070339195 -0.09032765 0.10845999
0.070903495 -0.090623289 0.10873005
0.071516462 -0.090771094 0.10886508
0.072153986 -0.090844989 0.1089326
0.072739564 -0.091066688 0.10913514
0.07337568 -0.091140628 0.10920265
0.074011326 -0.091214508 0.10927017
0.07467293 -0.091214508 0.10927017
0.068562753 -0.090133786 0.10738105
0.069204964 -0.090207532 0.10744873
0.06984669 -0.090281278 0.10751642
0.070512749 -0.090281278 0.10751642
0.071078695 -0.090576246 0.10778713
0.071718559 -0.090649977 0.10785481
0.072332457 -0.090797469 0.10799018
0.072945409 -0.090944946 0.10812555
0.07360936 -0.090944946 0.10812555
0.074247114 -0.091018677 0.1081932
0.06873139 -0.090090081 0.10643482
0.069375239 -0.090163648 0.10650267
0.070018604 -0.09023723 0.10657053
0.070686303 -0.09023723 0.10657053
0.071278915 -0.090457946 0.10677405
0.071895391 -0.090605095 0.10690975
0.072510928 -0.090752259 0.10704544
0.073151253 -0.090825826 0.10711327
0.073817074 -0.090825826 0.10711327
0.074430503 -0.09097296 0.10724898
0.068230227 -0.090048671 0.10548629
0.068875939 -0.090122074 0.10555428
0.069521189 -0.090195507 0.10562231
0.070165962 -0.09026891 0.1056903
0.070835069 -0.09026891 0.1056903
0.071479142 -0.090342298 0.10575831
0.072046965 -0.09063594 0.10603037
0.072663903 -0.090782762 0.10616638
0.073331363 -0.090782762 0.10616638
0.073946901 -0.090929583 0.10630241
0.074613899 -0.090929583 0.10630241
0.06834951 -0.090156063 0.10467175
0.068996392 -0.090229318 0.10473993
0.069667138 -0.090229318 0.10473993
0.07031332 -0.090302557 0.10480811
0.071008623 -0.090229318 0.10473993
0.071629301 -0.090375811 0.10487629
0.072223797 -0.090595543 0.10508083
0.072893374 -0.090595543 0.10508083
0.073511474 -0.090742037 0.10521717
0.069165029 -0.09019205 0.10378726
0.069837414 -0.09019205 0.10378726
0.070485234 -0.090265125 0.10385559
0.071157381 -0.090265125 0.10385559
0.071829528 -0.090265125 0.10385559
0.072451152 -0.090411291 0.10399228
0.073046349 -0.090630502 0.10419729
0.073717318 -0.090630502 0.10419729
0.069309577 -0.090230018 0.10290076
0.069983363 -0.090230018 0.10290076
0.070657149 -0.090230018 0.10290076
0.071306139 -0.090302944 0.10296927
0.072004721 -0.090230018 0.10290076
0.072627984 -0.090375856 0.10303777
0.073301308 -0.090375856 0.10303777
0.07394889 -0.090448752 0.10310628
0.074647941 -0.090375856 0.10303777
0.068755075 -0.09034273 0.10208096
0.069405943 -0.090415463 0.10214961
0.070080668 -0.090415463 0.10214961
0.070779949 -0.09034273 0.10208096
0.071454905 -0.09034273 0.10208096
0.072104834 -0.090415463 0.10214961
0.072804816 -0.09034273 0.10208096
0.073454283 -0.090415463 0.10214961
0.074129 -0.090415463 0.10214961
0.07482969 -0.09034273 0.10208096
0.069550484 -0.090457097 0.10125948
0.070226617 -0.090457097 0.10125948
0.070902742 -0.090457097 0.10125948
0.071578868 -0.090457097 0.10125948
0.072254993 -0.090457097 0.10125948
0.072956391 -0.090384498 0.10119063
0.073607258 -0.090457097 0.10125948
0.074309118 -0.090384498 0.10119063
0.074985482 -0.090384498 0.10119063
0.068969786 -0.090645522 0.10050537
0.069670938 -0.090573102 0.10043637
0.07034824 -0.090573102 0.10043637
0.0710501 -0.090500683 0.10036735
0.071702838 -0.090573102 0.10043637
0.072380133 -0.090573102 0.10043637
0.0730827 -0.090500683 0.10036735
0.073760234 -0.090500683 0.10036735
0.074437767 -0.090500683 0.10036735
0.075115301 -0.090500683 0.10036735
0.06908907 -0.090763032 0.099680766
0.069791399 -0.090690777 0.099611565
0.070469871 -0.090690777 0.099611565
0.071148336 -0.090690777 0.099611565
0.071826808 -0.090690777 0.099611565
0.07250528 -0.090690777 0.099611565
0.073183753 -0.090690777 0.099611565
0.073862225 -0.090690777 0.099611565
0.07454069 -0.090690777 0.099611565
0.07524512 -0.090618521 0.099542424
0.06916064 -0.091026351 0.098993152
0.06986367 -0.090954274 0.098923817
0.070591494 -0.09081009 0.098785147
0.071271136 -0.09081009 0.098785147
0.071950771 -0.09081009 0.098785147
0.07258036 -0.090954274 0.098923817
0.073259532 -0.090954274 0.098923817
0.073989704 -0.09081009 0.098785147
0.074669339 -0.09081009 0.098785147
0.069303781 -0.091074929 0.098096073
0.070032306 -0.090931088 0.09795706
0.070737444 -0.09085916 0.097887546
0.071393929 -0.090931088 0.09795706
0.07202515 -0.091074929 0.098096073
0.072680473 -0.091146842 0.098165557
0.073385842 -0.091074929 0.098096073
0.074066184 -0.091074929 0.098096073
0.074797988 -0.090931088 0.09795706
0.070200935 -0.090910226 0.096987978
0.070907719 -0.090838462 0.0969183
0.071565844 -0.090910226 0.096987978
0.072223507 -0.090981975 0.097057641
0.072905719 -0.090981975 0.097057641
0.073562674 -0.091053739 0.097127318
0.074193664 -0.091197252 0.097266644
0.074926637 -0.091053739 0.097127318
0.070417754 -0.090748489 0.095876917
0.071053669 -0.090891674 0.096016586
0.071737759 -0.090891674 0.096016586
0.072372258 -0.091034859 0.096156254
0.073030859 -0.09110643 0.096226066
0.073714249 -0.09110643 0.096226066
0.07437215 -0.091178015 0.096295893
0.069947906 -0.090589747 0.094762862
0.070586391 -0.090732604 0.094902858
0.071223944 -0.090875447 0.095042869
0.071860559 -0.091018274 0.095182836
0.072496235 -0.091161117 0.095322847
0.073181026 -0.091161117 0.095322847
0.073840559 -0.091232553 0.095392853
0.074525118 -0.091232553 0.095392853
0.069426604 -0.0905765 0.093786165
0.070091054 -0.090647757 0.09385632
0.070755027 -0.090719014 0.093926504
0.071369894 -0.090932786 0.094136983
0.072007909 -0.091075301 0.094277307
0.072644986 -0.091217816 0.094417647
0.073306166 -0.091289058 0.094487816
0.073966861 -0.091360331 0.094557986
0.074652597 -0.091360331 0.094557986
0.068948783 -0.09042339 0.092666477
0.069615588 -0.090494469 0.09273681
0.070258051 -0.090636656 0.092877477
0.070923671 -0.090707749 0.092947781
0.071564503 -0.090849921 0.093088448
0.072179824 -0.091063201 0.093299463
0.072843343 -0.091134295 0.093369782
0.073506378 -0.091205388 0.09344013
0.074118435 -0.091418669 0.093651101
0.069065735 -0.090556949 0.091825798
0.06975732 -0.090556949 0.091825798
0.070448905 -0.090556949 0.091825798
0.071116395 -0.090627879 0.09189631
0.071734779 -0.090840638 0.092107788
0.072376303 -0.090982497 0.092248783
0.07306648 -0.090982497 0.092248783
0.073706605 -0.091124356 0.092389777
0.074371062 -0.091195285 0.092460245
0.069159284 -0.090762943 0.091054142
0.069875434 -0.090692177 0.090983465
0.070568189 -0.090692177 0.090983465
0.071236849 -0.090762943 0.091054142
0.071905054 -0.090833694 0.091124788
0.072523661 -0.091045976 0.091336772
0.073215246 -0.091045976 0.091336772
0.073881797 -0.091116741 0.091407448
0.069276229 -0.090899646 0.090210304
0.069993541 -0.090829059 0.090139478
0.070687473 -0.090829059 0.090139478
0.071381398 -0.090829059 0.090139478
0.072026677 -0.090970248 0.090281144
0.072671011 -0.091111436 0.090422809
0.073413588 -0.090970248 0.090281144
0.07405699 -0.091111436 0.090422809
0.069416553 -0.090967596 0.089293852
0.070111655 -0.090967596 0.089293852
0.070806749 -0.090967596 0.089293852
0.071501851 -0.090967596 0.089293852
0.072172627 -0.091038018 0.089364842
0.072842926 -0.091108456 0.089435846
0.073562354 -0.091038018 0.089364842
0.070371501 -0.090686202 0.088019595
0.07102146 -0.090826735 0.088161916
0.07171867 -0.090826735 0.088161916
0.072391555 -0.090896994 0.088233069
0.073088527 -0.090896994 0.088233069
0.073785499 -0.090896994 0.088233069
0.06981416 -0.09075895 0.087098315
0.070678599 -0.090268269 0.086599052
0.071307741 -0.090478584 0.086813033
0.071983665 -0.090548664 0.08688435
0.072683454 -0.090548664 0.08688435
0.073358677 -0.090618744 0.086955667
0.074008636 -0.09075895 0.087098315
0.070258535 -0.089924589 0.085245684
0.07091482 -0.090064436 0.085388675
0.07159403 -0.090134367 0.085460156
0.072200485 -0.090414107 0.085746124
0.072902381 -0.090414107 0.085746124
0.073579714 -0.090484008 0.085817605
0.070492424 -0.089724377 0.084031671
0.071151048 -0.089863911 0.084174976
0.07176102 -0.09014298 0.0844616
0.072393216 -0.090352282 0.084676549
0.073121309 -0.090282515 0.084604919
0.073800743 -0.090352282 0.084676549
0.070110708 -0.089249104 0.082527041
0.07077308 -0.089388296 0.082670689
0.071458139 -0.089457914 0.082742527
0.072095014 -0.089666709 0.082957983
0.072778672 -0.089736298 0.083029792
0.073413208 -0.089945123 0.083245263
0.074120015 -0.089945123 0.083245263
0 0 0 1 0 0 0 1 0 0 0 1 0 0 0 0 0 494 1 0 0
