ply
format ascii 1.0
comment PCL generated
element vertex 542
property float x
property float y
property float z
element camera 1
property float view_px
property float view_py
property float view_pz
property float x_axisx
property float x_axisy
property float x_axisz
property float y_axisx
property float y_axisy
property float y_axisz
property float z_axisx
property float z_axisy
property float z_axisz
property float focal
property float scalex
property float scaley
property float centerx
property float centery
property int viewportx
property int viewporty
property float k1
property float k2
end_header
0.068457045 -0.088666752 0.13161692
0.069085866 -0.088666752 0.13161692
0.069714688 -0.088666752 0.13161692
0.070369706 -0.088588044 0.13155422
0.070972323 -0.088666752 0.13161692
0.071601145 -0.088666752 0.13161692
0.067174368 -0.089189947 0.13123517
0.067777701 -0.089268491 0.13129804
0.068431549 -0.089189947 0.13123517
0.069085866 -0.089111388 0.13117227
0.069688715 -0.089189947 0.13123517
0.070317306 -0.089189947 0.13123517
0.070972323 -0.089111388 0.13117227
0.071574479 -0.089189947 0.13123517
0.072203062 -0.089189947 0.13123517
0.072804518 -0.089268491 0.13129804
0.066496201 -0.089791179 0.13091677
0.067149349 -0.089712799 0.13085373
0.067777701 -0.089712799 0.13085373
0.068406053 -0.089712799 0.13085373
0.069060132 -0.089634418 0.13079068
0.069688715 -0.089634418 0.13079068
0.070317306 -0.089634418 0.13079068
0.070945889 -0.089634418 0.13079068
0.071574479 -0.089634418 0.13079068
0.072149262 -0.089791179 0.13091677
0.072804518 -0.089712799 0.13085373
0.073405497 -0.089791179 0.13091677
0.066496201 -0.090235338 0.13047263
0.067124315 -0.090235338 0.13047263
0.067777701 -0.090157107 0.13040942
0.068406053 -0.090157107 0.13040942
0.069060132 -0.090078905 0.13034621
0.069662757 -0.090157107 0.13040942
0.070317306 -0.090078905 0.13034621
0.070893019 -0.090235338 0.13047263
0.071547814 -0.090157107 0.13040942
0.072149262 -0.090235338 0.13047263
0.072777376 -0.090235338 0.13047263
0.073378131 -0.090313539 0.13053584
0.073978417 -0.090391725 0.13059902
0.065843523 -0.090757519 0.13009186
0.066471405 -0.090757519 0.13009186
0.067099288 -0.090757519 0.13009186
0.067727178 -0.090757519 0.13009186
0.068380557 -0.090679482 0.13002849
0.069008671 -0.090679482 0.13002849
0.069636784 -0.090679482 0.13002849
0.070264906 -0.090679482 0.13002849
0.070893019 -0.090679482 0.13002849
0.071521141 -0.090679482 0.13002849
0.072149262 -0.090679482 0.13002849
0.072750241 -0.090757519 0.13009186
0.073378131 -0.090757519 0.13009186
0.073950805 -0.090913609 0.1302186
0.065818965 -0.091279358 0.12971139
0.066446617 -0.091279358 0.12971139
0.067074262 -0.091279358 0.12971139
0.067727178 -0.091201499 0.12964788
0.068355061 -0.091201499 0.12964788
0.068982944 -0.091201499 0.12964788
0.069610827 -0.091201499 0.12964788
0.070238717 -0.091201499 0.12964788
0.070893019 -0.091123626 0.12958434
0.071494475 -0.091201499 0.12964788
0.072122365 -0.091201499 0.12964788
0.072723113 -0.091279358 0.12971139
0.073350765 -0.091279358 0.12971139
0.073978417 -0.091279358 0.12971139
0.074578218 -0.091357261 0.12977494
0.065794408 -0.091800898 0.12933129
0.066446617 -0.091723174 0.12926759
0.067074262 -0.091723174 0.12926759
0.067676648 -0.091800898 0.12933129
0.068355061 -0.091645479 0.1292039
0.068982944 -0.091645479 0.1292039
0.069610827 -0.091645479 0.1292039
0.070238717 -0.091645479 0.1292039
0.070866592 -0.091645479 0.1292039
0.071521141 -0.09156777 0.1291402
0.072095469 -0.091723174 0.12926759
0.072750241 -0.091645479 0.1292039
0.073350765 -0.091723174 0.12926759
0.073978417 -0.091723174 0.12926759
0.074578218 -0.091800898 0.12933129
0.065769851 -0.092322096 0.12895152
0.066397026 -0.092322096 0.12895152
0.067049235 -0.092244551 0.12888765
0.067676648 -0.092244551 0.12888765
0.068329573 -0.09216699 0.12882377
0.068982944 -0.092089459 0.12875992
0.069610827 -0.092089459 0.12875992
0.070264906 -0.092011914 0.12869605
0.070893019 -0.092011914 0.12869605
0.071494475 -0.092089459 0.12875992
0.072122365 -0.092089459 0.12875992
0.072750241 -0.092089459 0.12875992
0.073350765 -0.09216699 0.12882377
0.073978417 -0.09216699 0.12882377
0.074578218 -0.092244551 0.12888765
0.066397026 -0.092765585 0.12850803
0.067049235 -0.092688203 0.128444
0.067676648 -0.092688203 0.128444
0.068329573 -0.092610806 0.12837996
0.068957217 -0.092610806 0.12837996
0.069610827 -0.092533439 0.12831593
0.070238717 -0.092533439 0.12831593
0.070893019 -0.092456073 0.1282519
0.071521141 -0.092456073 0.1282519
0.072122365 -0.092533439 0.12831593
0.072750241 -0.092533439 0.12831593
0.073350765 -0.092610806 0.12837996
0.073978417 -0.092610806 0.12837996
0.074578218 -0.092688203 0.128444
0.066397026 -0.093209058 0.12806454
0.067049235 -0.093131855 0.12800035
0.067701921 -0.093054622 0.12793614
0.068355061 -0.092977419 0.12787196
0.069008671 -0.092900217 0.12780775
0.069662757 -0.092822984 0.12774354
0.070291109 -0.092822984 0.12774354
0.070972323 -0.092668533 0.12761512
0.071601145 -0.092668533 0.12761512
0.072203062 -0.092745766 0.12767935
0.072777376 -0.092900217 0.12780775
0.073405497 -0.092900217 0.12780775
0.074006014 -0.092977419 0.12787196
0.067074262 -0.093498439 0.12749232
0.067701921 -0.093498439 0.12749232
0.068406053 -0.093267292 0.12729923
0.069060132 -0.093190253 0.12723486
0.069714688 -0.093113184 0.12717049
0.070369706 -0.09303613 0.12710613
0.071078055 -0.092804968 0.126913
0.071654484 -0.092959076 0.12704174
0.072256871 -0.09303613 0.12710613
0.072831646 -0.093190253 0.12723486
0.073460236 -0.093190253 0.12723486
0.074061222 -0.093267292 0.12729923
0.067752436 -0.093788505 0.12691946
0.068457045 -0.093557835 0.12672584
0.069111593 -0.093480945 0.12666132
0.069792576 -0.09332718 0.12653224
0.070474498 -0.0931734 0.12640318
0.071104489 -0.0931734 0.12640318
0.071707815 -0.093250275 0.12646769
0.072283775 -0.093404055 0.12659676
0.072885916 -0.093480945 0.12666132
0.07348761 -0.093557835 0.12672584
0.068584524 -0.09361887 0.12595771
0.069343165 -0.093235269 0.12563421
0.069974326 -0.093235269 0.12563421
0.070605494 -0.093235269 0.12563421
0.07126309 -0.093158528 0.12556949
0.071867816 -0.093235269 0.12563421
0.072445177 -0.093388706 0.12576361
0.072994463 -0.09361887 0.12595771
0.073597088 -0.093695566 0.1260224
0.06990923 -0.091997325 0.12376086
0.070389763 -0.092456669 0.12415007
0.070893683 -0.09283945 0.12447439
0.071474545 -0.092992559 0.12460414
0.072321162 -0.092380106 0.12408519
0.072714195 -0.093069106 0.12466897
0.073265813 -0.093298778 0.12486359
0.071548648 -0.09137781 0.12240049
0.071950339 -0.092065319 0.12298578
0.07068114 -0.090610474 0.12090509
0.071324483 -0.090610474 0.12090509
0.069672339 -0.090228736 0.1197312
0.070318259 -0.090228736 0.1197312
0.070912711 -0.090380847 0.11986192
0.071506232 -0.090532973 0.11999264
0.072098814 -0.090685084 0.12012337
0.072716892 -0.09076114 0.12018874
0.073387839 -0.090685084 0.12012337
0.069176592 -0.090230092 0.11888129
0.069773391 -0.090381876 0.11901236
0.070394747 -0.090457782 0.11907789
0.070989907 -0.090609565 0.11920892
0.071636058 -0.090609565 0.11920892
0.072256014 -0.090685472 0.11927447
0.072901927 -0.090685472 0.11927447
0.073521182 -0.090761334 0.11933997
0.069276705 -0.090384901 0.1181608
0.069899701 -0.090460643 0.1182265
0.070471242 -0.090687811 0.11842357
0.071118556 -0.090687811 0.11842357
0.071713954 -0.090839282 0.11855495
0.072308414 -0.090990737 0.11868635
0.072954789 -0.090990737 0.11868635
0.07365451 -0.090839282 0.11855495
0.074247569 -0.090990737 0.11868635
0.068826787 -0.09023881 0.11717553
0.069451898 -0.090314358 0.1172414
0.07002601 -0.090541065 0.11743897
0.07062421 -0.090692177 0.1175707
0.071247205 -0.090767741 0.11763655
0.071869738 -0.09084329 0.11770241
0.072465606 -0.090994418 0.11783411
0.073113389 -0.090994418 0.11783411
0.07376118 -0.090994418 0.11783411
0.074408978 -0.090994418 0.11783411
0.068324015 -0.090246126 0.11631969
0.068925969 -0.090396911 0.11645171
0.069552004 -0.090472341 0.11651775
0.07015232 -0.090623111 0.11664979
0.070777193 -0.09069851 0.11671583
0.071401589 -0.09077391 0.11678185
0.071973592 -0.09100011 0.11697993
0.072570391 -0.091150895 0.11711198
0.073219113 -0.091150895 0.11711198
0.073867843 -0.091150895 0.11711198
0.074516572 -0.091150895 0.11711198
0.069074728 -0.090405911 0.11559419
0.069702171 -0.090481147 0.1156604
0.07027863 -0.09070684 0.11585897
0.070904672 -0.090782076 0.11592516
0.071504503 -0.090932548 0.11605754
0.072129384 -0.091007754 0.11612374
0.072727591 -0.091158226 0.11625612
0.073351286 -0.091233462 0.11632229
0.074001186 -0.091233462 0.11632229
0.074597284 -0.091383904 0.11645468
0.068643287 -0.090191677 0.11453563
0.069223486 -0.090416893 0.11473471
0.069802284 -0.090642095 0.11493376
0.070430197 -0.090717167 0.11500014
0.071032159 -0.090867266 0.11513284
0.071658894 -0.090942353 0.11519919
0.072207272 -0.091242626 0.11546463
0.07280618 -0.091392756 0.11559734
0.073430583 -0.091467813 0.11566368
0.074054524 -0.09154287 0.11573003
0.074704893 -0.09154287 0.11573003
0.068716966 -0.090429857 0.11387321
0.069322661 -0.090579659 0.11400625
0.069952451 -0.090654537 0.11407277
0.070581771 -0.090729445 0.1141393
0.071185127 -0.090879261 0.11427234
0.071736082 -0.091178864 0.11453845
0.072363064 -0.091253743 0.11460495
0.072963379 -0.091403559 0.11473799
0.073589183 -0.091478452 0.11480451
0.074161187 -0.091703162 0.11500409
0.07478559 -0.09177804 0.1150706
0.068864316 -0.090444818 0.11300975
0.069471426 -0.090594262 0.1131431
0.07010261 -0.090669006 0.1132098
0.070682824 -0.090893209 0.11340986
0.071312606 -0.090967953 0.11347656
0.071890466 -0.091192141 0.11367661
0.072492883 -0.091341615 0.11380999
0.073068172 -0.091565818 0.11401004
0.073694907 -0.091640562 0.11407673
0.074321188 -0.091715276 0.11414342
0.068426557 -0.09023805 0.11194372
0.068987116 -0.090536296 0.11221112
0.069620185 -0.090610877 0.11227798
0.07022775 -0.090760022 0.11241169
0.070834383 -0.090909168 0.1125454
0.07141459 -0.091132864 0.11274594
0.072044849 -0.09120743 0.11281279
0.072622709 -0.091431141 0.11301337
0.073225372 -0.091580257 0.11314705
0.073853508 -0.091654837 0.11321391
0.074481197 -0.091729403 0.11328076
0.067960486 -0.090108648 0.11094174
0.068523854 -0.090406269 0.11120979
0.069085352 -0.09070389 0.11147788
0.069694564 -0.090852663 0.1116119
0.070352897 -0.090852663 0.1116119
0.070985958 -0.090927079 0.11167893
0.071542069 -0.0912247 0.11194701
0.072147764 -0.091373518 0.11208105
0.072752535 -0.091522306 0.11221506
0.073382556 -0.091596708 0.1122821
0.074012108 -0.091671109 0.11234911
0.068621159 -0.090575814 0.11047457
0.069208153 -0.090798512 0.11067611
0.069843322 -0.090872765 0.1107433
0.07047803 -0.090947002 0.11081047
0.071061745 -0.09116973 0.11101204
0.071695052 -0.091243953 0.11107922
0.072302148 -0.091392428 0.11121358
0.07290832 -0.091540903 0.11134796
0.073513545 -0.091689393 0.11148232
0.074144274 -0.091763616 0.11154951
0.068370037 -0.089783743 0.10886246
0.068864405 -0.090302259 0.1093339
0.069429189 -0.090598539 0.10960329
0.070016876 -0.09082076 0.10980535
0.07060317 -0.091042981 0.11000741
0.07121332 -0.091191128 0.11014211
0.071822532 -0.091339275 0.11027679
0.072456531 -0.091413334 0.11034414
0.073038138 -0.09163557 0.1105462
0.073670745 -0.091709629 0.11061355
0.069059014 -0.090179831 0.10832496
0.069625661 -0.09047547 0.10859503
0.07019043 -0.090771094 0.10886508
0.070753336 -0.091066688 0.10913514
0.071364895 -0.091214508 0.10927017
0.072001003 -0.091288432 0.10933769
0.07258518 -0.091510147 0.10954024
0.073219895 -0.091584057 0.10960773
0.069277935 -0.089986309 0.10724568
0.06984669 -0.090281278 0.10751642
0.07043837 -0.090502486 0.10771945
0.071028642 -0.090723708 0.10792249
0.071592249 -0.091018677 0.1081932
0.072179474 -0.091239914 0.10839626
0.072842479 -0.091239914 0.10839626
0.073401645 -0.091534853 0.10866697
0.068900026 -0.089575052 0.10595991
0.069496863 -0.089795783 0.10616343
0.070067726 -0.090090081 0.10643482
0.070661515 -0.090310797 0.10663836
0.071253896 -0.090531513 0.10684189
0.071844868 -0.090752259 0.10704544
0.07243444 -0.09097296 0.10724898
0.073074058 -0.091046557 0.10731682
0.073713221 -0.091120124 0.10738467
0.068468794 -0.089314565 0.10480615
0.068996392 -0.089755028 0.10521422
0.069618486 -0.08990185 0.10535026
0.070288762 -0.08990185 0.10535026
0.070859857 -0.090195507 0.10562231
0.071479142 -0.090342298 0.10575831
0.072072223 -0.090562537 0.10596237
0.072689399 -0.090709358 0.1060984
0.073946901 -0.090929583 0.10630241
0.068611935 -0.089350402 0.10392182
0.069189124 -0.089643359 0.10419451
0.069837414 -0.089716613 0.10426269
0.070485234 -0.089789852 0.10433087
0.071033418 -0.090156063 0.10467175
0.071679361 -0.090229318 0.10473993
0.072299577 -0.090375811 0.10487629
0.073020846 -0.090229318 0.10473993
0.068659648 -0.089680508 0.10330886
0.069285482 -0.089826673 0.10344554
0.069934718 -0.089899749 0.10351388
0.070583478 -0.089972809 0.1035822
0.071256556 -0.089972809 0.1035822
0.071879588 -0.09011896 0.10371891
0.072501682 -0.090265125 0.10385559
0.073199324 -0.09019205 0.10378726
0.073743045 -0.090557456 0.10412897
0.068150982 -0.089646727 0.10235269
0.068778932 -0.089792535 0.10248971
0.069430031 -0.089865461 0.10255823
0.070056342 -0.090011299 0.10269523
0.070755392 -0.089938357 0.10262671
0.071405314 -0.090011299 0.10269523
0.0720798 -0.090011299 0.10269523
0.072703771 -0.090157107 0.10283226
0.073377796 -0.090157107 0.10283226
0.074026078 -0.090230018 0.10290076
0.06822186 -0.089906231 0.10166889
0.068874359 -0.089979008 0.10173757
0.069550484 -0.089979008 0.10173757
0.070202291 -0.090051726 0.10180625
0.070902742 -0.089979008 0.10173757
0.071529284 -0.090124488 0.10187493
0.07220494 -0.090124488 0.10187493
0.072830088 -0.090269968 0.10201228
0.073505282 -0.090269968 0.10201228
0.074180469 -0.090269968 0.10201228
0.067685813 -0.089949012 0.10077761
0.068339966 -0.090021595 0.10084644
0.0690175 -0.090021595 0.10084644
0.069695033 -0.090021595 0.10084644
0.07034824 -0.090094179 0.1009153
0.071025535 -0.090094179 0.1009153
0.071678042 -0.090166762 0.10098413
0.072355106 -0.090166762 0.10098413
0.072981648 -0.09031193 0.10112181
0.07365825 -0.09031193 0.10112181
0.074334845 -0.09031193 0.10112181
0.07501144 -0.09031193 0.10112181
0.06845808 -0.090138614 0.10002233
0.069112927 -0.090211019 0.10009132
0.069791399 -0.090211019 0.10009132
0.070469871 -0.090211019 0.10009132
0.071148336 -0.090211019 0.10009132
0.071802013 -0.090283453 0.10016035
0.072430186 -0.090428278 0.10029835
0.073107958 -0.090428278 0.10029835
0.073760234 -0.090500683 0.10036735
0.074437767 -0.090500683 0.10036735
0.067896314 -0.090257287 0.099196553
0.068552569 -0.090329513 0.099265724
0.069232211 -0.090329513 0.099265724
0.069911852 -0.090329513 0.099265724
0.070591494 -0.090329513 0.099265724
0.071222015 -0.090474024 0.099404067
0.071876399 -0.090546265 0.099473238
0.072530299 -0.090618521 0.099542424
0.07320901 -0.090618521 0.099542424
0.073887713 -0.090618521 0.099542424
0.074566416 -0.090618521 0.099542424
0.067989863 -0.090449676 0.098438472
0.068623438 -0.09059386 0.098577142
0.069303781 -0.09059386 0.098577142
0.069960035 -0.090665936 0.098646462
0.070664465 -0.09059386 0.098577142
0.071320251 -0.090665936 0.098646462
0.071975566 -0.090738028 0.098715812
0.072655439 -0.090738028 0.098715812
0.073310055 -0.09081009 0.098785147
0.073989704 -0.09081009 0.098785147
0.074669339 -0.09081009 0.098785147
0.067424826 -0.090571493 0.097609565
0.068060026 -0.090715349 0.097748548
0.068741545 -0.090715349 0.097748548
0.069399208 -0.090787247 0.097818047
0.070080489 -0.090787247 0.097818047
0.07076177 -0.090787247 0.097818047
0.071443051 -0.090787247 0.097818047
0.072099537 -0.09085916 0.097887546
0.072755553 -0.090931088 0.09795706
0.073461629 -0.09085916 0.097887546
0.074117184 -0.090931088 0.09795706
0.074823722 -0.09085916 0.097887546
0.068176977 -0.090838462 0.0969183
0.068859667 -0.090838462 0.0969183
0.069542348 -0.090838462 0.0969183
0.07022503 -0.090838462 0.0969183
0.070883393 -0.090910226 0.096987978
0.071565844 -0.090910226 0.096987978
0.072223507 -0.090981975 0.097057641
0.072905719 -0.090981975 0.097057641
0.073613197 -0.090910226 0.096987978
0.074270159 -0.090981975 0.097057641
0.074952371 -0.090981975 0.097057641
0.067586899 -0.091034859 0.096156254
0.068270527 -0.091034859 0.096156254
0.068977773 -0.090963259 0.096086398
0.069661632 -0.090963259 0.096086398
0.070345484 -0.090963259 0.096086398
0.071005017 -0.091034859 0.096156254
0.071688637 -0.091034859 0.096156254
0.07234747 -0.09110643 0.096226066
0.073055878 -0.091034859 0.096156254
0.073739506 -0.091034859 0.096156254
0.074423134 -0.091034859 0.096156254
0.067702681 -0.091161117 0.095322847
0.068387471 -0.091161117 0.095322847
0.069072269 -0.091161117 0.095322847
0.069757059 -0.091161117 0.095322847
0.07044185 -0.091161117 0.095322847
0.071150973 -0.091089696 0.095252857
0.071811438 -0.091161117 0.095322847
0.072496235 -0.091161117 0.095322847
0.073206052 -0.091089696 0.095252857
0.073865823 -0.091161117 0.095322847
0.074550621 -0.091161117 0.095322847
0.067818448 -0.091289058 0.094487816
0.068481021 -0.091360331 0.094557986
0.069190376 -0.091289058 0.094487816
0.069876343 -0.091289058 0.094487816
0.070586391 -0.091217816 0.094417647
0.071272597 -0.091217816 0.094417647
0.071909674 -0.091360331 0.094557986
0.072644986 -0.091217816 0.094417647
0.073331185 -0.091217816 0.094417647
0.073992133 -0.091289058 0.094487816
0.074678101 -0.091289058 0.094487816
0.068621352 -0.091418669 0.093651101
0.069332115 -0.091347545 0.093580768
0.070019484 -0.091347545 0.093580768
0.070755027 -0.091205388 0.09344013
0.071442872 -0.091205388 0.09344013
0.072081596 -0.091347545 0.093580768
0.072768964 -0.091347545 0.093580768
0.073506378 -0.091205388 0.09344013
0.0741437 -0.091347545 0.093580768
0.068073146 -0.091478974 0.092742249
0.068831846 -0.091266215 0.092530772
0.069544718 -0.091195285 0.092460245
0.070234194 -0.091195285 0.092460245
0.070947759 -0.091124356 0.092389777
0.071613155 -0.091195285 0.092460245
0.072278067 -0.091266215 0.092530772
0.072992101 -0.091195285 0.092460245
0.073681578 -0.091195285 0.092460245
0.074345797 -0.091266215 0.092530772
0.068281531 -0.091329008 0.091619417
0.068995565 -0.091258273 0.091548771
0.06975732 -0.091045976 0.091336772
0.070448905 -0.091045976 0.091336772
0.07114049 -0.091045976 0.091336772
0.071832076 -0.091045976 0.091336772
0.072449982 -0.091258273 0.091548771
0.073215246 -0.091045976 0.091336772
0.073881797 -0.091116741 0.091407448
0.074497372 -0.091329008 0.091619417
0.069252834 -0.090970248 0.090281144
0.069969922 -0.090899646 0.090210304
0.070663616 -0.090899646 0.090210304
0.071333215 -0.090970248 0.090281144
0.072051004 -0.090899646 0.090210304
0.072720133 -0.090970248 0.090281144
0.073413588 -0.090970248 0.090281144
0.07405699 -0.091111436 0.090422809
0.074699461 -0.09125264 0.090564445
0.069416553 -0.090967596 0.089293852
0.070111655 -0.090967596 0.089293852
0.070854463 -0.090826735 0.089151859
0.071501851 -0.090967596 0.089293852
0.072148301 -0.091108456 0.089435846
0.072892047 -0.090967596 0.089293852
0.073562354 -0.091038018 0.089364842
0.074257217 -0.091038018 0.089364842
0.070395119 -0.090615958 0.087948456
0.071069174 -0.090686202 0.088019595
0.07171867 -0.090826735 0.088161916
0.072391555 -0.090896994 0.088233069
0.073113084 -0.090826735 0.088161916
0.073785499 -0.090896994 0.088233069
0.070631355 -0.090408474 0.086741701
0.071331598 -0.090408474 0.086741701
0.071983665 -0.090548664 0.08688435
0.072659135 -0.090618744 0.086955667
0.073309556 -0.09075895 0.087098315
0.074008636 -0.09075895 0.087098315
0.070962064 -0.089924589 0.085245684
0.071617879 -0.090064436 0.085388675
0.072224572 -0.090344176 0.085674644
0.072878055 -0.090484008 0.085817605
0.073530592 -0.090623885 0.085960582
0.071174666 -0.089794159 0.084103331
0.071784876 -0.090073213 0.084389955
0.072417304 -0.090282515 0.084604919
0.073024005 -0.090561569 0.084891543
0.070157014 -0.089109898 0.082383409
0.070819855 -0.089249104 0.082527041
0.071481764 -0.089388296 0.082670689
0.072095014 -0.089666709 0.082957983
0.072754577 -0.089805916 0.08310163
0.073364556 -0.090084314 0.08338891
0 0 0 1 0 0 0 1 0 0 0 1 0 0 0 0 0 542 1 0 0
