ply
format ascii 1.0
comment PCL generated
element vertex 498
property float x
property float y
property float z
element camera 1
property float view_px
property float view_py
property float view_pz
property float x_axisx
property float x_axisy
property float x_axisz
property float y_axisx
property float y_axisy
property float y_axisz
property float z_axisx
property float z_axisy
property float z_axisz
property float focal
property float scalex
property float scaley
property float centerx
property float centery
property int viewportx
property int viewporty
property float k1
property float k2
end_header
0.069688715 -0.088745475 0.13167964
0.070291109 -0.088824168 0.13174236
0.070919462 -0.088824168 0.13174236
0.068380557 -0.089347035 0.13136092
0.069008671 -0.089347035 0.13136092
0.069662757 -0.089268491 0.13129804
0.070291109 -0.089268491 0.13129804
0.070893019 -0.089347035 0.13136092
0.071521141 -0.089347035 0.13136092
0.072122365 -0.089425579 0.1314238
0.067074262 -0.089947909 0.13104284
0.067701921 -0.089947909 0.13104284
0.068355061 -0.089869559 0.13097982
0.069008671 -0.089791179 0.13091677
0.069636784 -0.089791179 0.13091677
0.070264906 -0.089791179 0.13091677
0.070893019 -0.089791179 0.13091677
0.071467817 -0.089947909 0.13104284
0.072095469 -0.089947909 0.13104284
0.072695971 -0.090026304 0.1311059
0.067049235 -0.090469956 0.13066225
0.067701921 -0.090391725 0.13059902
0.068329573 -0.090391725 0.13059902
0.068982944 -0.090313539 0.13053584
0.069610827 -0.090313539 0.13053584
0.070238717 -0.090313539 0.13053584
0.070840165 -0.090391725 0.13059902
0.071467817 -0.090391725 0.13059902
0.072095469 -0.090391725 0.13059902
0.072668836 -0.090548158 0.13072546
0.073268652 -0.090626389 0.13078867
0.066372231 -0.091069698 0.13034534
0.067024209 -0.090991646 0.13028197
0.067651391 -0.090991646 0.13028197
0.068278573 -0.090991646 0.13028197
0.068931475 -0.090913609 0.1302186
0.069584869 -0.090835541 0.13015521
0.070212521 -0.090835541 0.13015521
0.070840165 -0.090835541 0.13015521
0.071414478 -0.090991646 0.13028197
0.072041661 -0.090991646 0.13028197
0.072641701 -0.091069698 0.13034534
0.073268652 -0.091069698 0.13034534
0.073840387 -0.091225803 0.13047211
0.066347443 -0.091590896 0.12996557
0.067024209 -0.091435134 0.12983848
0.067626126 -0.091513023 0.12990203
0.068253078 -0.091513023 0.12990203
0.068931475 -0.091357261 0.12977494
0.069558896 -0.091357261 0.12977494
0.070186317 -0.091357261 0.12977494
0.070813723 -0.091357261 0.12977494
0.071387805 -0.091513023 0.12990203
0.072041661 -0.091435134 0.12983848
0.072614565 -0.091590896 0.12996557
0.073241286 -0.091590896 0.12996557
0.073867999 -0.091590896 0.12996557
0.074466862 -0.091668785 0.13002911
0.06572073 -0.092034042 0.12952241
0.066347443 -0.092034042 0.12952241
0.066974156 -0.092034042 0.12952241
0.067600869 -0.092034042 0.12952241
0.068227582 -0.092034042 0.12952241
0.068854287 -0.092034042 0.12952241
0.069506966 -0.091956347 0.12945871
0.070160121 -0.091878608 0.12939501
0.070787296 -0.091878608 0.12939501
0.071387805 -0.091956347 0.12945871
0.072014757 -0.091956347 0.12945871
0.072614565 -0.092034042 0.12952241
0.073213905 -0.092111781 0.12958613
0.073840387 -0.092111781 0.12958613
0.074466862 -0.092111781 0.12958613
0.065696165 -0.092554763 0.12914315
0.066322647 -0.092554763 0.12914315
0.066999175 -0.092399657 0.1290154
0.067600869 -0.092477202 0.12907927
0.068227582 -0.092477202 0.12907927
0.068880014 -0.092399657 0.1290154
0.069532938 -0.092322096 0.12895152
0.070160121 -0.092322096 0.12895152
0.070787296 -0.092322096 0.12895152
0.071387805 -0.092399657 0.1290154
0.072014757 -0.092399657 0.1290154
0.072614565 -0.092477202 0.12907927
0.073213905 -0.092554763 0.12914315
0.073867999 -0.092477202 0.12907927
0.074466862 -0.092554763 0.12914315
0.066372231 -0.092842981 0.12857208
0.066999175 -0.092842981 0.12857208
0.067600869 -0.092920363 0.12863611
0.068253078 -0.092842981 0.12857208
0.068880014 -0.092842981 0.12857208
0.069532938 -0.092765585 0.12850803
0.070186317 -0.092688203 0.128444
0.070813723 -0.092688203 0.128444
0.071414478 -0.092765585 0.12850803
0.072041661 -0.092765585 0.12850803
0.072641701 -0.092842981 0.12857208
0.073241286 -0.092920363 0.12863611
0.073867999 -0.092920363 0.12863611
0.074466862 -0.09299776 0.12870017
0.066999175 -0.093286291 0.12812877
0.067651391 -0.093209058 0.12806454
0.068278573 -0.093209058 0.12806454
0.068931475 -0.093131855 0.12800035
0.069558896 -0.093131855 0.12800035
0.070186317 -0.093131855 0.12800035
0.070840165 -0.093054622 0.12793614
0.071467817 -0.093054622 0.12793614
0.072041661 -0.093209058 0.12806454
0.072641701 -0.093286291 0.12812877
0.073268652 -0.093286291 0.12812877
0.073895596 -0.093286291 0.12812877
0.067024209 -0.093652546 0.12762107
0.067651391 -0.093652546 0.12762107
0.068278573 -0.093652546 0.12762107
0.068905748 -0.093652546 0.12762107
0.069558896 -0.093575507 0.1275567
0.070212521 -0.093498439 0.12749232
0.070787296 -0.093652546 0.12762107
0.071441144 -0.093575507 0.1275567
0.072041661 -0.093652546 0.12762107
0.072641701 -0.093729615 0.12768544
0.073268652 -0.093729615 0.12768544
0.073867999 -0.093806654 0.1277498
0.067802958 -0.093634725 0.12679039
0.068508044 -0.093404055 0.12659676
0.069111593 -0.093480945 0.12666132
0.069766618 -0.093404055 0.12659676
0.070317306 -0.093634725 0.12679039
0.070998751 -0.093480945 0.12666132
0.071574479 -0.093634725 0.12679039
0.072122365 -0.093865395 0.126984
0.072750241 -0.093865395 0.126984
0.073350765 -0.093942255 0.12704851
0.068030313 -0.093388706 0.12576361
0.068635523 -0.093465418 0.12582831
0.069291703 -0.093388706 0.12576361
0.069896437 -0.093465418 0.12582831
0.070526898 -0.093465418 0.12582831
0.071157351 -0.093465418 0.12582831
0.071734481 -0.09361887 0.12595771
0.072256871 -0.093925759 0.1262165
0.072831646 -0.094079196 0.1263459
0.07343287 -0.094155923 0.1264106
0.069574736 -0.092992559 0.12460414
0.070182048 -0.093069106 0.12466897
0.070815086 -0.093069106 0.12466897
0.071368814 -0.093298778 0.12486359
0.071974486 -0.09337534 0.12492844
0.069647081 -0.090761334 0.11933997
0.070369251 -0.090533674 0.11914341
0.070964172 -0.090685472 0.11927447
0.071636058 -0.090609565 0.11920892
0.072256014 -0.090685472 0.11927447
0.072901927 -0.090685472 0.11927447
0.07354784 -0.090685472 0.11927447
0.069823913 -0.090687811 0.11842357
0.070445739 -0.090763554 0.11848927
0.071092822 -0.090763554 0.11848927
0.071713954 -0.090839282 0.11855495
0.072360806 -0.090839282 0.11855495
0.072981216 -0.090915009 0.11862066
0.073627844 -0.090915009 0.11862066
0.070000745 -0.090616614 0.11750482
0.07062421 -0.090692177 0.1175707
0.071247205 -0.090767741 0.11763655
0.071895704 -0.090767741 0.11763655
0.072518006 -0.09084329 0.11770241
0.073166259 -0.09084329 0.11770241
0.073814519 -0.09084329 0.11770241
0.069602057 -0.090321541 0.11638571
0.070202842 -0.090472341 0.11651775
0.070777193 -0.09069851 0.11671583
0.071427315 -0.09069851 0.11671583
0.072077453 -0.09069851 0.11671583
0.072648995 -0.090924695 0.11691388
0.073271982 -0.09100011 0.11697993
0.073921181 -0.09100011 0.11697993
0.069074728 -0.090405911 0.11559419
0.069702171 -0.090481147 0.1156604
0.070329152 -0.090556368 0.11572659
0.070904672 -0.090782076 0.11592516
0.071530238 -0.090857297 0.11599134
0.072155342 -0.090932548 0.11605754
0.072779991 -0.091007754 0.11612374
0.073404156 -0.09108299 0.11618991
0.074054524 -0.09108299 0.11618991
0.069248281 -0.090341821 0.11466834
0.069902398 -0.090341821 0.11466834
0.070480719 -0.090567023 0.11486742
0.071083143 -0.090717167 0.11500014
0.071684629 -0.090867266 0.11513284
0.072311133 -0.090942353 0.11519919
0.072937183 -0.09101741 0.11526555
0.073536314 -0.091167539 0.11539826
0.074161187 -0.091242626 0.11546463
0.069372252 -0.090429857 0.11387321
0.070002504 -0.090504766 0.11393975
0.070632294 -0.090579659 0.11400625
0.071236119 -0.090729445 0.1141393
0.071839005 -0.090879261 0.11427234
0.072440952 -0.091029063 0.11440539
0.073041968 -0.091178864 0.11453845
0.07366848 -0.091253743 0.11460495
0.074321188 -0.091253743 0.11460495
0.069545805 -0.090370074 0.11294305
0.070177697 -0.090444818 0.11300975
0.070783868 -0.090594262 0.1131431
0.07141459 -0.090669006 0.1132098
0.071967654 -0.090967953 0.11347656
0.072596744 -0.091042683 0.11354323
0.073199168 -0.091192141 0.11367661
0.07382708 -0.09126687 0.11374329
0.074454524 -0.091341615 0.11380999
0.06859684 -0.089716047 0.11147574
0.069109917 -0.090163469 0.11187686
0.069694564 -0.090387166 0.1120774
0.070327863 -0.090461731 0.11214426
0.070935436 -0.090610877 0.11227798
0.071542069 -0.090760022 0.11241169
0.072147764 -0.090909168 0.1125454
0.072752535 -0.091058284 0.11267908
0.073382556 -0.091132864 0.11274594
0.074012108 -0.09120743 0.11281279
0.068718463 -0.089811027 0.11067365
0.069257274 -0.090183049 0.11100873
0.069868118 -0.090331852 0.11114277
0.07047803 -0.090480655 0.11127682
0.07108701 -0.090629473 0.11141086
0.071695052 -0.090778291 0.11154489
0.072276421 -0.091001481 0.11174594
0.07290832 -0.091075897 0.11181296
0.073513545 -0.0912247 0.11194701
0.074170701 -0.0912247 0.11194701
0.069404624 -0.090204641 0.11013864
0.070016876 -0.090353101 0.11027302
0.070653223 -0.090427339 0.11034019
0.071238585 -0.090650052 0.11054173
0.071848027 -0.090798512 0.11067611
0.072456531 -0.090947002 0.11081047
0.073064104 -0.091095477 0.11094485
0.073670745 -0.091243953 0.11107922
0.074329302 -0.091243953 0.11107922
0.069010362 -0.089857832 0.10892981
0.069601104 -0.090080038 0.10913184
0.07019043 -0.090302259 0.1093339
0.070778362 -0.09052448 0.10953596
0.071390152 -0.090672627 0.10967065
0.072001003 -0.09082076 0.10980535
0.07258518 -0.091042981 0.11000741
0.073219895 -0.091117054 0.11007473
0.073854133 -0.091191128 0.11014211
0.068538666 -0.089736387 0.10791987
0.069156311 -0.089884207 0.10805489
0.069773018 -0.090032011 0.10818993
0.070363991 -0.090253726 0.10839248
0.070953555 -0.09047547 0.10859503
0.071566984 -0.090623289 0.10873005
0.072153986 -0.090844989 0.1089326
0.072816752 -0.090844989 0.1089326
0.073401645 -0.091066688 0.10913514
0.074037522 -0.091140628 0.10920265
0.068683207 -0.089765102 0.10704266
0.069277935 -0.089986309 0.10724568
0.069920376 -0.09006004 0.10731336
0.070562333 -0.090133786 0.10738105
0.071153782 -0.090355009 0.10758407
0.071743816 -0.090576246 0.10778713
0.072357953 -0.090723708 0.10792249
0.07299687 -0.090797469 0.10799018
0.073583394 -0.091018677 0.1081932
0.074247114 -0.091018677 0.1081932
0.06820637 -0.089648619 0.10602775
0.068803668 -0.089869335 0.10623127
0.069423892 -0.090016484 0.10636698
0.070067726 -0.090090081 0.10643482
0.070711099 -0.090163648 0.10650267
0.071328975 -0.090310797 0.10663836
0.071920656 -0.090531513 0.10684189
0.072536424 -0.090678662 0.10697758
0.07317698 -0.090752259 0.10704544
0.073817074 -0.090825826 0.10711327
0.068301797 -0.089828432 0.10528223
0.068900026 -0.090048671 0.10548629
0.069545515 -0.090122074 0.10555428
0.070190519 -0.090195507 0.10562231
0.070884652 -0.090122074 0.10555428
0.071479142 -0.090342298 0.10575831
0.072097488 -0.090489119 0.10589434
0.072714895 -0.09063594 0.10603037
0.073998831 -0.090782762 0.10616638
0.068373367 -0.090082839 0.10460359
0.069020487 -0.090156063 0.10467175
0.069691464 -0.090156063 0.10467175
0.070337877 -0.090229318 0.10473993
0.071008623 -0.090229318 0.10473993
0.071629301 -0.090375811 0.10487629
0.072249055 -0.090522304 0.10501266
0.072893374 -0.090595543 0.10508083
0.073511474 -0.090742037 0.10521717
0.068492651 -0.09019205 0.10378726
0.069165029 -0.09019205 0.10378726
0.069813095 -0.090265125 0.10385559
0.070485234 -0.090265125 0.10385559
0.071157381 -0.090265125 0.10385559
0.071804494 -0.090338215 0.10392395
0.072451152 -0.090411291 0.10399228
0.073122837 -0.090411291 0.10399228
0.073743045 -0.090557456 0.10412897
0.068635792 -0.090230018 0.10290076
0.069285482 -0.090302944 0.10296927
0.069959037 -0.090302944 0.10296927
0.070657149 -0.090230018 0.10290076
0.071330935 -0.090230018 0.10290076
0.071979687 -0.090302944 0.10296927
0.072653241 -0.090302944 0.10296927
0.073326796 -0.090302944 0.10296927
0.074000344 -0.090302944 0.10296927
0.068778932 -0.090269968 0.10201228
0.069454126 -0.090269968 0.10201228
0.070104994 -0.09034273 0.10208096
0.070804507 -0.090269968 0.10201228
0.071479701 -0.090269968 0.10201228
0.072154887 -0.090269968 0.10201228
0.072804816 -0.09034273 0.10208096
0.073479779 -0.09034273 0.10208096
0.074180469 -0.090269968 0.10201228
0.068245478 -0.09031193 0.10112181
0.068898216 -0.090384498 0.10119063
0.06957458 -0.090384498 0.10119063
0.070275269 -0.09031193 0.10112181
0.070927307 -0.090384498 0.10119063
0.071603663 -0.090384498 0.10119063
0.072280027 -0.090384498 0.10119063
0.072981648 -0.09031193 0.10112181
0.073632762 -0.090384498 0.10119063
0.074334845 -0.09031193 0.10112181
0.068363585 -0.090428278 0.10029835
0.069041356 -0.090428278 0.10029835
0.069719121 -0.090428278 0.10029835
0.070396893 -0.090428278 0.10029835
0.0710501 -0.090500683 0.10036735
0.071727633 -0.090500683 0.10036735
0.072405167 -0.090500683 0.10036735
0.073107958 -0.090428278 0.10029835
0.073760234 -0.090500683 0.10036735
0.074463494 -0.090428278 0.10029835
0.068481706 -0.090546265 0.099473238
0.069136783 -0.090618521 0.099542424
0.069839582 -0.090546265 0.099473238
0.070518523 -0.090546265 0.099473238
0.071172893 -0.090618521 0.099542424
0.071851596 -0.090618521 0.099542424
0.072530299 -0.090618521 0.099542424
0.07320901 -0.090618521 0.099542424
0.073887713 -0.090618521 0.099542424
0.074592151 -0.090546265 0.099473238
0.067896314 -0.090738028 0.098715812
0.068576187 -0.090738028 0.098715812
0.06925606 -0.090738028 0.098715812
0.06993594 -0.090738028 0.098715812
0.070640147 -0.090665936 0.098646462
0.071320251 -0.090665936 0.098646462
0.071975566 -0.090738028 0.098715812
0.072655439 -0.090738028 0.098715812
0.073360585 -0.090665936 0.098646462
0.074040696 -0.090665936 0.098646462
0.074695066 -0.090738028 0.098715812
0.067989863 -0.090931088 0.09795706
0.068670683 -0.090931088 0.09795706
0.069375351 -0.09085916 0.097887546
0.070056401 -0.09085916 0.097887546
0.070737444 -0.09085916 0.097887546
0.071418494 -0.09085916 0.097887546
0.072074741 -0.090931088 0.09795706
0.072755553 -0.090931088 0.09795706
0.073461629 -0.09085916 0.097887546
0.07414268 -0.09085916 0.097887546
0.074823722 -0.09085916 0.097887546
0.068130195 -0.090981975 0.097057641
0.068812415 -0.090981975 0.097057641
0.069518492 -0.090910226 0.096987978
0.070176847 -0.090981975 0.097057641
0.070859075 -0.090981975 0.097057641
0.071565844 -0.090910226 0.096987978
0.072223507 -0.090981975 0.097057641
0.072905719 -0.090981975 0.097057641
0.073587939 -0.090981975 0.097057641
0.074270159 -0.090981975 0.097057641
0.074978098 -0.090910226 0.096987978
0.068247139 -0.09110643 0.096226066
0.068930529 -0.09110643 0.096226066
0.069637768 -0.091034859 0.096156254
0.070321389 -0.091034859 0.096156254
0.071005017 -0.091034859 0.096156254
0.07166408 -0.09110643 0.096226066
0.07234747 -0.09110643 0.096226066
0.073055878 -0.091034859 0.096156254
0.073714249 -0.09110643 0.096226066
0.074423134 -0.091034859 0.096156254
0.068387471 -0.091161117 0.095322847
0.069072269 -0.091161117 0.095322847
0.069757059 -0.091161117 0.095322847
0.07044185 -0.091161117 0.095322847
0.071102321 -0.091232553 0.095392853
0.07178688 -0.091232553 0.095392853
0.072471432 -0.091232553 0.095392853
0.073181026 -0.091161117 0.095322847
0.073865823 -0.091161117 0.095322847
0.074550621 -0.091161117 0.095322847
0.067818448 -0.091289058 0.094487816
0.068504408 -0.091289058 0.094487816
0.069214001 -0.091217816 0.094417647
0.069900192 -0.091217816 0.094417647
0.070586391 -0.091217816 0.094417647
0.071248271 -0.091289058 0.094487816
0.071934238 -0.091289058 0.094487816
0.072595403 -0.091360331 0.094557986
0.073306166 -0.091289058 0.094487816
0.073992133 -0.091289058 0.094487816
0.067957371 -0.091347545 0.093580768
0.068691514 -0.091205388 0.09344013
0.069402978 -0.091134295 0.093369782
0.07006719 -0.091205388 0.09344013
0.070755027 -0.091205388 0.09344013
0.071394227 -0.091347545 0.093580768
0.072081596 -0.091347545 0.093580768
0.072768964 -0.091347545 0.093580768
0.073506378 -0.091205388 0.09344013
0.074194223 -0.091205388 0.09344013
0.068119451 -0.091337115 0.092601255
0.068878621 -0.091124356 0.092389777
0.069615588 -0.090982497 0.092248783
0.070258051 -0.091124356 0.092389777
0.070995942 -0.090982497 0.092248783
0.071637474 -0.091124356 0.092389777
0.072278067 -0.091266215 0.092530772
0.072992101 -0.091195285 0.092460245
0.073681578 -0.091195285 0.092460245
0.074345797 -0.091266215 0.092530772
0.068281531 -0.091329008 0.091619417
0.069065735 -0.091045976 0.091336772
0.069780938 -0.09097521 0.091266125
0.070472762 -0.09097521 0.091266125
0.071164578 -0.09097521 0.091266125
0.071832076 -0.091045976 0.091336772
0.072499096 -0.091116741 0.091407448
0.073190451 -0.091116741 0.091407448
0.073831744 -0.091258273 0.091548771
0.06846676 -0.09125264 0.090564445
0.069206059 -0.091111436 0.090422809
0.069969922 -0.090899646 0.090210304
0.070663616 -0.090899646 0.090210304
0.071333215 -0.090970248 0.090281144
0.072026677 -0.090970248 0.090281144
0.072720133 -0.090970248 0.090281144
0.073413588 -0.090970248 0.090281144
0.07405699 -0.091111436 0.090422809
0.068582535 -0.091390163 0.089719787
0.069393165 -0.091038018 0.089364842
0.070111655 -0.090967596 0.089293852
0.070806749 -0.090967596 0.089293852
0.071477763 -0.091038018 0.089364842
0.072172627 -0.091038018 0.089364842
0.07286749 -0.091038018 0.089364842
0.073562354 -0.091038018 0.089364842
0.069603667 -0.090896994 0.088233069
0.070371501 -0.090686202 0.088019595
0.07109303 -0.090615958 0.087948456
0.071766853 -0.090686202 0.088019595
0.072464526 -0.090686202 0.088019595
0.073162198 -0.090686202 0.088019595
0.073810287 -0.090826735 0.088161916
0.069767378 -0.090899155 0.087240964
0.070607729 -0.090478584 0.086813033
0.071331598 -0.090408474 0.086741701
0.072031848 -0.090408474 0.086741701
0.072707772 -0.090478584 0.086813033
0.073383234 -0.090548664 0.08688435
0.074058227 -0.090618744 0.086955667
0.070164979 -0.090204298 0.085531667
0.070891201 -0.090134367 0.085460156
0.071570165 -0.090204298 0.085531667
0.072272755 -0.090204298 0.085531667
0.072902381 -0.090414107 0.085746124
0.073628828 -0.090344176 0.085674644
0.070469029 -0.089794159 0.084103331
0.071151048 -0.089863911 0.084174976
0.071784876 -0.090073213 0.084389955
0.072465487 -0.09014298 0.0844616
0.073121309 -0.090282515 0.084604919
0.071481764 -0.089388296 0.082670689
0.072142728 -0.089527503 0.082814336
0.07280276 -0.089666709 0.082957983
0.073461853 -0.089805916 0.08310163
0.074267372 -0.089527503 0.082814336
0 0 0 1 0 0 0 1 0 0 0 1 0 0 0 0 0 498 1 0 0
