ply
format ascii 1.0
comment PCL generated
element vertex 559
property float x
property float y
property float z
element camera 1
property float view_px
property float view_py
property float view_pz
property float x_axisx
property float x_axisy
property float x_axisz
property float y_axisx
property float y_axisy
property float y_axisz
property float z_axisx
property float z_axisy
property float z_axisz
property float focal
property float scalex
property float scaley
property float centerx
property float centery
property int viewportx
property int viewporty
property float k1
property float k2
end_header
0.069662757 -0.088824168 0.13174236
0.070291109 -0.088824168 0.13174236
0.070919462 -0.088824168 0.13174236
0.068355061 -0.089425579 0.1314238
0.069008671 -0.089347035 0.13136092
0.069636784 -0.089347035 0.13136092
0.070264906 -0.089347035 0.13136092
0.070919462 -0.089268491 0.13129804
0.071521141 -0.089347035 0.13136092
0.072149262 -0.089347035 0.13136092
0.067676648 -0.090026304 0.1311059
0.068355061 -0.089869559 0.13097982
0.068982944 -0.089869559 0.13097982
0.069636784 -0.089791179 0.13091677
0.070264906 -0.089791179 0.13091677
0.070893019 -0.089791179 0.13091677
0.071521141 -0.089791179 0.13091677
0.072122365 -0.089869559 0.13097982
0.072695971 -0.090026304 0.1311059
0.073323391 -0.090026304 0.1311059
0.067024209 -0.090548158 0.13072546
0.067676648 -0.090469956 0.13066225
0.068304069 -0.090469956 0.13066225
0.068957217 -0.090391725 0.13059902
0.069610827 -0.090313539 0.13053584
0.070264906 -0.090235338 0.13047263
0.070893019 -0.090235338 0.13047263
0.071494475 -0.090313539 0.13053584
0.072122365 -0.090313539 0.13053584
0.072695971 -0.090469956 0.13066225
0.073268652 -0.090626389 0.13078867
0.073923208 -0.090548158 0.13072546
0.066347443 -0.091147751 0.13040872
0.066999175 -0.091069698 0.13034534
0.067651391 -0.090991646 0.13028197
0.068304069 -0.090913609 0.1302186
0.068957217 -0.090835541 0.13015521
0.069584869 -0.090835541 0.13015521
0.070212521 -0.090835541 0.13015521
0.070866592 -0.090757519 0.13009186
0.071467817 -0.090835541 0.13015521
0.072095469 -0.090835541 0.13015521
0.072668836 -0.090991646 0.13028197
0.073296025 -0.090991646 0.13028197
0.073895596 -0.091069698 0.13034534
0.066322647 -0.091668785 0.13002911
0.066999175 -0.091513023 0.12990203
0.067626126 -0.091513023 0.12990203
0.068278573 -0.091435134 0.12983848
0.068905748 -0.091435134 0.12983848
0.069558896 -0.091357261 0.12977494
0.070212521 -0.091279358 0.12971139
0.070866592 -0.091201499 0.12964788
0.071467817 -0.091279358 0.12971139
0.072095469 -0.091279358 0.12971139
0.072641701 -0.091513023 0.12990203
0.073296025 -0.091435134 0.12983848
0.073895596 -0.091513023 0.12990203
0.07452254 -0.091513023 0.12990203
0.065647043 -0.092267215 0.12971355
0.066297852 -0.092189491 0.12964983
0.066949122 -0.092111781 0.12958613
0.067600869 -0.092034042 0.12952241
0.068202086 -0.092111781 0.12958613
0.068880014 -0.091956347 0.12945871
0.069532938 -0.091878608 0.12939501
0.070186317 -0.091800898 0.12933129
0.070840165 -0.091723174 0.12926759
0.071467817 -0.091723174 0.12926759
0.072041661 -0.091878608 0.12939501
0.072668836 -0.091878608 0.12939501
0.073268652 -0.091956347 0.12945871
0.073895596 -0.091956347 0.12945871
0.07452254 -0.091956347 0.12945871
0.066273056 -0.092709869 0.1292709
0.066949122 -0.092554763 0.12914315
0.067600869 -0.092477202 0.12907927
0.068253078 -0.092399657 0.1290154
0.068905748 -0.092322096 0.12895152
0.069532938 -0.092322096 0.12895152
0.070212521 -0.09216699 0.12882377
0.070840165 -0.09216699 0.12882377
0.071467817 -0.09216699 0.12882377
0.072068557 -0.092244551 0.12888765
0.072668836 -0.092322096 0.12895152
0.073296025 -0.092322096 0.12895152
0.073895596 -0.092399657 0.1290154
0.07452254 -0.092399657 0.1290154
0.066297852 -0.093075126 0.1287642
0.066949122 -0.09299776 0.12870017
0.067600869 -0.092920363 0.12863611
0.068253078 -0.092842981 0.12857208
0.068931475 -0.092688203 0.128444
0.069558896 -0.092688203 0.128444
0.070212521 -0.092610806 0.12837996
0.070840165 -0.092610806 0.12837996
0.071494475 -0.092533439 0.12831593
0.072095469 -0.092610806 0.12837996
0.072668836 -0.092765585 0.12850803
0.073296025 -0.092765585 0.12850803
0.073923208 -0.092765585 0.12850803
0.07452254 -0.092842981 0.12857208
0.066974156 -0.093363509 0.12819296
0.067626126 -0.093286291 0.12812877
0.068278573 -0.093209058 0.12806454
0.068905748 -0.093209058 0.12806454
0.069610827 -0.092977419 0.12787196
0.070264906 -0.092900217 0.12780775
0.070919462 -0.092822984 0.12774354
0.071547814 -0.092822984 0.12774354
0.072149262 -0.092900217 0.12780775
0.072723113 -0.093054622 0.12793614
0.073323391 -0.093131855 0.12800035
0.073923208 -0.093209058 0.12806454
0.067626126 -0.093729615 0.12768544
0.068278573 -0.093652546 0.12762107
0.068931475 -0.093575507 0.1275567
0.069610827 -0.0934214 0.12742797
0.070238717 -0.0934214 0.12742797
0.070945889 -0.093190253 0.12723486
0.071547814 -0.093267292 0.12729923
0.072176166 -0.093267292 0.12729923
0.072750241 -0.0934214 0.12742797
0.073296025 -0.093652546 0.12762107
0.067727178 -0.093865395 0.126984
0.068329573 -0.093942255 0.12704851
0.069085866 -0.093557835 0.12672584
0.069896437 -0.09301962 0.12627411
0.070474498 -0.0931734 0.12640318
0.07105162 -0.09332718 0.12653224
0.071681149 -0.09332718 0.12653224
0.072256871 -0.093480945 0.12666132
0.072831646 -0.093634725 0.12679039
0.073350765 -0.093942255 0.12704851
0.068635523 -0.093465418 0.12582831
0.069343165 -0.093235269 0.12563421
0.070104152 -0.092851654 0.12531072
0.070762686 -0.092774928 0.125246
0.071368814 -0.092851654 0.12531072
0.071974486 -0.09292838 0.1253754
0.072579689 -0.093005091 0.12544011
0.069221929 -0.092150435 0.12389061
0.069960691 -0.091844201 0.12363113
0.070571512 -0.091920793 0.12369601
0.071155675 -0.092073873 0.12382573
0.071871042 -0.091844201 0.12363113
0.071653441 -0.091072246 0.12214038
0.071889229 -0.090839148 0.12110068
0.072531864 -0.090839148 0.12110068
0.0700633 -0.090989307 0.12038481
0.070706874 -0.090989307 0.12038481
0.071376413 -0.090913266 0.12031946
0.071994029 -0.090989307 0.12038481
0.07266403 -0.090913266 0.12031946
0.073307842 -0.090913266 0.12031946
0.069076478 -0.090533674 0.11914341
0.069647081 -0.090761334 0.11933997
0.070318259 -0.090685472 0.11927447
0.070938446 -0.090761334 0.11933997
0.071558163 -0.09083724 0.11940552
0.072151214 -0.090989038 0.11953658
0.072796188 -0.090989038 0.11953658
0.073494509 -0.09083724 0.11940552
0.074166864 -0.090761334 0.11933997
0.069276705 -0.090384901 0.1181608
0.069874443 -0.090536371 0.11829217
0.070471242 -0.090687811 0.11842357
0.071092822 -0.090763554 0.11848927
0.071687981 -0.090915009 0.11862066
0.072308414 -0.090990737 0.11868635
0.072928362 -0.091066465 0.11875202
0.073574513 -0.091066465 0.11875202
0.074247569 -0.090990737 0.11868635
0.068569608 -0.089029804 0.1161218
0.069074728 -0.089483172 0.11651693
0.069602057 -0.089861006 0.11684625
0.070101798 -0.090314358 0.1172414
0.07062421 -0.090692177 0.1175707
0.071247205 -0.090767741 0.11763655
0.071869738 -0.09084329 0.11770241
0.072465606 -0.090994418 0.11783411
0.073113389 -0.090994418 0.11783411
0.07376118 -0.090994418 0.11783411
0.074408978 -0.090994418 0.11783411
0.075056762 -0.090994418 0.11783411
0.067502759 -0.088738188 0.11499918
0.06806168 -0.089039788 0.11526328
0.068643287 -0.089265957 0.11546135
0.069149107 -0.089718357 0.1158575
0.069702171 -0.090019941 0.11612161
0.070202842 -0.090472341 0.11651775
0.070802689 -0.090623111 0.11664979
0.071401589 -0.09077391 0.11678185
0.071999565 -0.090924695 0.11691388
0.072596595 -0.091075495 0.11704594
0.073219113 -0.091150895 0.11711198
0.073894516 -0.091075495 0.11704594
0.074516572 -0.091150895 0.11711198
0.075138167 -0.091226295 0.11717799
0.068207629 -0.089051768 0.1144028
0.068766087 -0.089352667 0.11466755
0.069223486 -0.089954525 0.11519708
0.06977725 -0.090255469 0.11546184
0.070354417 -0.090481147 0.1156604
0.070930168 -0.09070684 0.11585897
0.071504503 -0.090932548 0.11605754
0.072129384 -0.091007754 0.11612374
0.072727591 -0.091158226 0.11625612
0.073351286 -0.091233462 0.11632229
0.074001186 -0.091233462 0.11632229
0.074597284 -0.091383904 0.11645468
0.075219572 -0.09145917 0.11652087
0.067671396 -0.089140773 0.11360665
0.068256281 -0.089365974 0.11380574
0.068839759 -0.089591175 0.11400479
0.069347449 -0.090041578 0.11440293
0.069927417 -0.090266749 0.114602
0.070480719 -0.090567023 0.11486742
0.071057647 -0.090792209 0.11506648
0.071633168 -0.09101741 0.11526555
0.072233245 -0.091167539 0.11539826
0.072832383 -0.091317669 0.11553097
0.073430583 -0.091467813 0.11566368
0.074054524 -0.09154287 0.11573003
0.074704893 -0.09154287 0.11573003
0.066591896 -0.088856965 0.11247627
0.067180529 -0.089081645 0.11267583
0.067767754 -0.089306369 0.1128754
0.068353578 -0.089531049 0.11307496
0.06888888 -0.08990556 0.11340757
0.069471426 -0.09013024 0.11360712
0.07002753 -0.090429857 0.11387321
0.070632294 -0.090579659 0.11400625
0.07121063 -0.090804338 0.11420581
0.071761817 -0.091103956 0.1144719
0.072363064 -0.091253743 0.11460495
0.072963379 -0.091403559 0.11473799
0.073536314 -0.091628253 0.11493756
0.074161187 -0.091703162 0.11500409
0.07478559 -0.09177804 0.1150706
0.066757254 -0.088800654 0.11154263
0.067299813 -0.089174315 0.11187606
0.067888215 -0.089398518 0.1120761
0.068450883 -0.089697465 0.11234286
0.069011673 -0.089996397 0.11260961
0.069570594 -0.090295345 0.11287637
0.07015267 -0.090519547 0.11307642
0.070758604 -0.090669006 0.1132098
0.071312606 -0.090967953 0.11347656
0.071864739 -0.09126687 0.11374329
0.072492883 -0.091341615 0.11380999
0.073068172 -0.091565818 0.11401004
0.073694907 -0.091640562 0.11407673
0.074321188 -0.091715276 0.11414342
0.066804498 -0.089119509 0.11094093
0.06739524 -0.089343205 0.11114147
0.068008669 -0.089492351 0.11127518
0.068548188 -0.089865178 0.11160944
0.069159031 -0.090014324 0.11174315
0.069719359 -0.090312615 0.11201057
0.070302837 -0.090536296 0.11221112
0.070859656 -0.090834588 0.11247854
0.071465589 -0.090983734 0.11261223
0.072044849 -0.09120743 0.11281279
0.072596744 -0.091505706 0.1130802
0.073225372 -0.091580257 0.11314705
0.073853508 -0.091654837 0.11321391
0.074454524 -0.091803983 0.11334762
0.075027704 -0.092027694 0.11354816
0.066898994 -0.089290217 0.11020452
0.06746681 -0.089587837 0.1104726
0.068056852 -0.089811027 0.11067365
0.068621159 -0.090108648 0.11094174
0.069208153 -0.090331852 0.11114277
0.069818534 -0.090480655 0.11127682
0.070402943 -0.09070389 0.11147788
0.07101123 -0.090852663 0.1116119
0.071618564 -0.091001481 0.11174594
0.072147764 -0.091373518 0.11208105
0.072752535 -0.091522306 0.11221506
0.073382556 -0.091596708 0.1122821
0.073959239 -0.091819927 0.11248314
0.066922612 -0.089684978 0.10966836
0.067562237 -0.089759201 0.10973553
0.068129122 -0.090056151 0.11000428
0.068718463 -0.090278864 0.11020581
0.069330946 -0.090427339 0.11034019
0.069892913 -0.090724304 0.11060894
0.07052809 -0.090798512 0.11067611
0.07108701 -0.091095477 0.11094485
0.071695052 -0.091243953 0.11107922
0.072302148 -0.091392428 0.11121358
0.07290832 -0.091540903 0.11134796
0.073513545 -0.091689393 0.11148232
0.074117832 -0.091837868 0.1116167
0.067040734 -0.089783743 0.10886246
0.067633808 -0.090005979 0.10906452
0.068249576 -0.090154126 0.10919921
0.068864405 -0.090302259 0.1093339
0.069429189 -0.090598539 0.10960329
0.070041671 -0.090746686 0.10973799
0.070653223 -0.090894833 0.1098727
0.071238585 -0.091117054 0.11007473
0.071822532 -0.091339275 0.11027679
0.07240507 -0.091561481 0.11047885
0.073064104 -0.091561481 0.11047885
0.073644549 -0.091783687 0.11068088
0.074302875 -0.091783687 0.11068088
0.066516399 -0.089810312 0.10798739
0.067158841 -0.089884207 0.10805489
0.067776948 -0.090032011 0.10818993
0.068370037 -0.090253726 0.10839248
0.069010362 -0.09032765 0.10845999
0.069601104 -0.09054935 0.10866253
0.070215225 -0.090697169 0.10879757
0.070828415 -0.090844989 0.1089326
0.071415417 -0.091066688 0.10913514
0.072026506 -0.091214508 0.10927017
0.072636642 -0.091362327 0.1094052
0.073245853 -0.091510147 0.10954024
0.073854133 -0.091657966 0.10967527
0.067253336 -0.09006004 0.10731336
0.067872375 -0.090207532 0.10744873
0.068490483 -0.090355009 0.10758407
0.069107659 -0.090502486 0.10771945
0.069773018 -0.090502486 0.10771945
0.070388779 -0.090649977 0.10785481
0.071003608 -0.090797469 0.10799018
0.071566984 -0.091092438 0.1082609
0.072204977 -0.091166154 0.10832858
0.072842479 -0.091239914 0.10839626
0.073479541 -0.091313645 0.10846394
0.074089922 -0.091461137 0.10859931
0.067371443 -0.090163648 0.10650267
0.067991659 -0.090310797 0.10663836
0.068610936 -0.090457946 0.10677405
0.069253616 -0.090531513 0.10684189
0.069920376 -0.090531513 0.10684189
0.070562333 -0.090605095 0.10690975
0.071203835 -0.090678662 0.10697758
0.071769081 -0.09097296 0.10724898
0.072408937 -0.091046557 0.10731682
0.073074058 -0.091046557 0.10731682
0.073687255 -0.091193691 0.10745251
0.074351914 -0.091193691 0.10745251
0.067465939 -0.090342298 0.10575831
0.068134807 -0.090342298 0.10575831
0.06873139 -0.090562537 0.10596237
0.069399558 -0.090562537 0.10596237
0.070067726 -0.090562537 0.10596237
0.070711099 -0.09063594 0.10603037
0.071328975 -0.090782762 0.10616638
0.071996436 -0.090782762 0.10616638
0.072612911 -0.090929583 0.10630241
0.073254175 -0.091002986 0.10637042
0.07389497 -0.091076404 0.10643844
0.074535303 -0.091149807 0.10650645
0.067607664 -0.090375811 0.10487629
0.068230227 -0.090522304 0.10501266
0.068900026 -0.090522304 0.10501266
0.069569834 -0.090522304 0.10501266
0.070215084 -0.090595543 0.10508083
0.070909441 -0.090522304 0.10501266
0.071554221 -0.090595543 0.10508083
0.072173275 -0.090742037 0.10521717
0.072842374 -0.090742037 0.10521717
0.073485747 -0.090815261 0.10528535
0.074180581 -0.090742037 0.10521717
0.067702159 -0.090557456 0.10412897
0.068373367 -0.090557456 0.10412897
0.069044575 -0.090557456 0.10412897
0.06971579 -0.090557456 0.10412897
0.070386998 -0.090557456 0.10412897
0.071058206 -0.090557456 0.10412897
0.071729414 -0.090557456 0.10412897
0.072375372 -0.090630502 0.10419729
0.073046349 -0.090630502 0.10419729
0.073717318 -0.090630502 0.10419729
0.068516508 -0.090594575 0.10324329
0.069189124 -0.090594575 0.10324329
0.06986174 -0.090594575 0.10324329
0.070583478 -0.090448752 0.10310628
0.071256556 -0.090448752 0.10310628
0.071929641 -0.090448752 0.10310628
0.072552204 -0.090594575 0.10324329
0.073275812 -0.090448752 0.10310628
0.073871695 -0.090667501 0.10331181
0.068659648 -0.09063372 0.10235564
0.069381848 -0.090488225 0.1022183
0.070056342 -0.090488225 0.1022183
0.070730828 -0.090488225 0.1022183
0.071430109 -0.090415463 0.10214961
0.0720798 -0.090488225 0.1022183
0.072754294 -0.090488225 0.1022183
0.073454283 -0.090415463 0.10214961
0.074103266 -0.090488225 0.1022183
0.068174608 -0.090529665 0.10132831
0.068826646 -0.090602249 0.10139717
0.069526397 -0.090529665 0.10132831
0.070202291 -0.090529665 0.10132831
0.070902742 -0.090457097 0.10125948
0.07155408 -0.090529665 0.10132831
0.072229974 -0.090529665 0.10132831
0.072905868 -0.090529665 0.10132831
0.073581763 -0.090529665 0.10132831
0.074283384 -0.090457097 0.10125948
0.068969786 -0.090645522 0.10050537
0.069670938 -0.090573102 0.10043637
0.07034824 -0.090573102 0.10043637
0.071025535 -0.090573102 0.10043637
0.071702838 -0.090573102 0.10043637
0.072380133 -0.090573102 0.10043637
0.073057435 -0.090573102 0.10043637
0.073734738 -0.090573102 0.10043637
0.074412033 -0.090573102 0.10043637
0.068434462 -0.090690777 0.099611565
0.069112927 -0.090690777 0.099611565
0.069815487 -0.090618521 0.099542424
0.070469871 -0.090690777 0.099611565
0.071148336 -0.090690777 0.099611565
0.071802013 -0.090763032 0.099680766
0.07250528 -0.090690777 0.099611565
0.073183753 -0.090690777 0.099611565
0.073862225 -0.090690777 0.099611565
0.07454069 -0.090690777 0.099611565
0.068505324 -0.090954274 0.098923817
0.069184497 -0.090954274 0.098923817
0.06986367 -0.090954274 0.098923817
0.070542842 -0.090954274 0.098923817
0.071222015 -0.090954274 0.098923817
0.071950771 -0.09081009 0.098785147
0.07258036 -0.090954274 0.098923817
0.073259532 -0.090954274 0.098923817
0.073938712 -0.090954274 0.098923817
0.067943089 -0.091074929 0.098096073
0.068623438 -0.091074929 0.098096073
0.069351494 -0.090931088 0.09795706
0.070032306 -0.090931088 0.09795706
0.070713118 -0.090931088 0.09795706
0.071393929 -0.090931088 0.09795706
0.07202515 -0.091074929 0.098096073
0.072755553 -0.090931088 0.09795706
0.073436365 -0.090931088 0.09795706
0.074066184 -0.091074929 0.098096073
0.068153583 -0.090910226 0.096987978
0.068836041 -0.090910226 0.096987978
0.069518492 -0.090910226 0.096987978
0.070200935 -0.090910226 0.096987978
0.070883393 -0.090910226 0.096987978
0.071565844 -0.090910226 0.096987978
0.072198704 -0.091053739 0.097127318
0.072905719 -0.090981975 0.097057641
0.073587939 -0.090981975 0.097057641
0.074270159 -0.090981975 0.097057641
0.068293914 -0.090963259 0.096086398
0.068977773 -0.090963259 0.096086398
0.069661632 -0.090963259 0.096086398
0.070369571 -0.090891674 0.096016586
0.071029343 -0.090963259 0.096086398
0.071688637 -0.091034859 0.096156254
0.072372258 -0.091034859 0.096156254
0.073055878 -0.091034859 0.096156254
0.073739506 -0.091034859 0.096156254
0.074423134 -0.091034859 0.096156254
0.068410859 -0.091089696 0.095252857
0.069095887 -0.091089696 0.095252857
0.069804773 -0.091018274 0.095182836
0.070490032 -0.091018274 0.095182836
0.071150973 -0.091089696 0.095252857
0.071835995 -0.091089696 0.095252857
0.072521023 -0.091089696 0.095252857
0.073206052 -0.091089696 0.095252857
0.073891081 -0.091089696 0.095252857
0.07457611 -0.091089696 0.095252857
0.068527795 -0.091217816 0.094417647
0.069284871 -0.091004029 0.094207138
0.069947906 -0.091075301 0.094277307
0.070658669 -0.091004029 0.094207138
0.071321249 -0.091075301 0.094277307
0.071958795 -0.091217816 0.094417647
0.072694577 -0.091075301 0.094277307
0.073381245 -0.091075301 0.094277307
0.074067913 -0.091075301 0.094277307
0.068003677 -0.091205388 0.09344013
0.068691514 -0.091205388 0.09344013
0.069426604 -0.091063201 0.093299463
0.070114903 -0.091063201 0.093299463
0.07080321 -0.091063201 0.093299463
0.071491517 -0.091063201 0.093299463
0.072155267 -0.091134295 0.093369782
0.072843343 -0.091134295 0.093369782
0.073531412 -0.091134295 0.093369782
0.074219488 -0.091134295 0.093369782
0.07488206 -0.091205388 0.09344013
0.068165764 -0.091195285 0.092460245
0.068878621 -0.091124356 0.092389777
0.069639206 -0.090911582 0.092178285
0.070329614 -0.090911582 0.092178285
0.070995942 -0.090982497 0.092248783
0.071686126 -0.090982497 0.092248783
0.072327182 -0.091124356 0.092389777
0.07306648 -0.090982497 0.092248783
0.073706605 -0.091124356 0.092389777
0.07439632 -0.091124356 0.092389777
0.068350993 -0.091116741 0.091407448
0.069065735 -0.091045976 0.091336772
0.069780938 -0.09097521 0.091266125
0.070520476 -0.090833694 0.091124788
0.071212761 -0.090833694 0.091124788
0.071856402 -0.09097521 0.091266125
0.072523661 -0.091045976 0.091336772
0.073215246 -0.091045976 0.091336772
0.073906831 -0.091045976 0.091336772
0.074573152 -0.091116741 0.091407448
0.069182672 -0.091182038 0.090493605
0.069946297 -0.090970248 0.090281144
0.070663616 -0.090899646 0.090210304
0.071333215 -0.090970248 0.090281144
0.072026677 -0.090970248 0.090281144
0.072671011 -0.091111436 0.090422809
0.073413588 -0.090970248 0.090281144
0.07405699 -0.091111436 0.090422809
0.074749984 -0.091111436 0.090422809
0.069393165 -0.091038018 0.089364842
0.070111655 -0.090967596 0.089293852
0.070806749 -0.090967596 0.089293852
0.071477763 -0.091038018 0.089364842
0.072148301 -0.091108456 0.089435846
0.07286749 -0.091038018 0.089364842
0.073562354 -0.091038018 0.089364842
0.074232183 -0.091108456 0.089435846
0.070371501 -0.090686202 0.088019595
0.07102146 -0.090826735 0.088161916
0.071694583 -0.090896994 0.088233069
0.072367229 -0.090967268 0.088304237
0.073039405 -0.091037527 0.088375375
0.073735908 -0.091037527 0.088375375
0.070584103 -0.090548664 0.08688435
0.071307741 -0.090478584 0.086813033
0.071959578 -0.090618744 0.086955667
0.072586149 -0.090829059 0.087169647
0.073309556 -0.09075895 0.087098315
0.073959053 -0.090899155 0.087240964
0.070258535 -0.089924589 0.085245684
0.07091482 -0.090064436 0.085388675
0.071522452 -0.090344176 0.085674644
0.072200485 -0.090414107 0.085746124
0.072829403 -0.090623885 0.085960582
0.073506027 -0.090693831 0.086032078
0.074132606 -0.090903625 0.08624655
0.071103804 -0.090003446 0.08431828
0.071713306 -0.090282515 0.084604919
0.072369121 -0.090422049 0.084748223
0.072999679 -0.090631336 0.084963188
0.073628828 -0.090840653 0.085178167
0.07077308 -0.089388296 0.082670689
0.071458139 -0.089457914 0.082742527
0.071999587 -0.089945123 0.083245263
0.072658211 -0.090084314 0.08338891
0 0 0 1 0 0 0 1 0 0 0 1 0 0 0 0 0 559 1 0 0
