ply
format ascii 1.0
comment PCL generated
element vertex 510
property float x
property float y
property float z
element camera 1
property float view_px
property float view_py
property float view_pz
property float x_axisx
property float x_axisy
property float x_axisz
property float y_axisx
property float y_axisy
property float y_axisz
property float z_axisx
property float z_axisy
property float z_axisz
property float focal
property float scalex
property float scaley
property float centerx
property float centery
property int viewportx
property int viewporty
property float k1
property float k2
end_header
0.069060132 -0.088745475 0.13167964
0.069688715 -0.088745475 0.13167964
0.070317306 -0.088745475 0.13167964
0.070919462 -0.088824168 0.13174236
0.067752436 -0.089347035 0.13136092
0.068380557 -0.089347035 0.13136092
0.069034405 -0.089268491 0.13129804
0.069662757 -0.089268491 0.13129804
0.070291109 -0.089268491 0.13129804
0.070919462 -0.089268491 0.13129804
0.071521141 -0.089347035 0.13136092
0.067074262 -0.089947909 0.13104284
0.067727178 -0.089869559 0.13097982
0.068380557 -0.089791179 0.13091677
0.069008671 -0.089791179 0.13091677
0.069662757 -0.089712799 0.13085373
0.070264906 -0.089791179 0.13091677
0.070893019 -0.089791179 0.13091677
0.071494475 -0.089869559 0.13097982
0.072095469 -0.089947909 0.13104284
0.072695971 -0.090026304 0.1311059
0.073296025 -0.090104669 0.13116893
0.066421822 -0.090469956 0.13066225
0.067074262 -0.090391725 0.13059902
0.067701921 -0.090391725 0.13059902
0.068355061 -0.090313539 0.13053584
0.068957217 -0.090391725 0.13059902
0.069636784 -0.090235338 0.13047263
0.070238717 -0.090313539 0.13053584
0.070840165 -0.090391725 0.13059902
0.071467817 -0.090391725 0.13059902
0.072095469 -0.090391725 0.13059902
0.072695971 -0.090469956 0.13066225
0.073268652 -0.090626389 0.13078867
0.073895596 -0.090626389 0.13078867
0.065745287 -0.091069698 0.13034534
0.066372231 -0.091069698 0.13034534
0.067024209 -0.090991646 0.13028197
0.067651391 -0.090991646 0.13028197
0.068329573 -0.090835541 0.13015521
0.068957217 -0.090835541 0.13015521
0.069584869 -0.090835541 0.13015521
0.070238717 -0.090757519 0.13009186
0.070866592 -0.090757519 0.13009186
0.071441144 -0.090913609 0.1302186
0.072068557 -0.090913609 0.1302186
0.072668836 -0.090991646 0.13028197
0.073296025 -0.090991646 0.13028197
0.073867999 -0.091147751 0.13040872
0.06572073 -0.091590896 0.12996557
0.066347443 -0.091590896 0.12996557
0.066999175 -0.091513023 0.12990203
0.067626126 -0.091513023 0.12990203
0.068253078 -0.091513023 0.12990203
0.068931475 -0.091357261 0.12977494
0.069584869 -0.091279358 0.12971139
0.070212521 -0.091279358 0.12971139
0.070813723 -0.091357261 0.12977494
0.071441144 -0.091357261 0.12977494
0.072068557 -0.091357261 0.12977494
0.072668836 -0.091435134 0.12983848
0.073268652 -0.091513023 0.12990203
0.073895596 -0.091513023 0.12990203
0.074494705 -0.091590896 0.12996557
0.065696165 -0.092111781 0.12958613
0.066347443 -0.092034042 0.12952241
0.066974156 -0.092034042 0.12952241
0.067626126 -0.091956347 0.12945871
0.068227582 -0.092034042 0.12952241
0.068905748 -0.091878608 0.12939501
0.069558896 -0.091800898 0.12933129
0.070186317 -0.091800898 0.12933129
0.070813723 -0.091800898 0.12933129
0.071441144 -0.091800898 0.12933129
0.072068557 -0.091800898 0.12933129
0.072668836 -0.091878608 0.12939501
0.073296025 -0.091878608 0.12939501
0.073895596 -0.091956347 0.12945871
0.074494705 -0.092034042 0.12952241
0.065696165 -0.092554763 0.12914315
0.066322647 -0.092554763 0.12914315
0.066974156 -0.092477202 0.12907927
0.067600869 -0.092477202 0.12907927
0.068227582 -0.092477202 0.12907927
0.068905748 -0.092322096 0.12895152
0.069558896 -0.092244551 0.12888765
0.070186317 -0.092244551 0.12888765
0.070813723 -0.092244551 0.12888765
0.071441144 -0.092244551 0.12888765
0.072041661 -0.092322096 0.12895152
0.072668836 -0.092322096 0.12895152
0.073296025 -0.092322096 0.12895152
0.073895596 -0.092399657 0.1290154
0.07452254 -0.092399657 0.1290154
0.066322647 -0.09299776 0.12870017
0.066974156 -0.092920363 0.12863611
0.067626126 -0.092842981 0.12857208
0.068253078 -0.092842981 0.12857208
0.068931475 -0.092688203 0.128444
0.069532938 -0.092765585 0.12850803
0.070186317 -0.092688203 0.128444
0.070840165 -0.092610806 0.12837996
0.071441144 -0.092688203 0.128444
0.072068557 -0.092688203 0.128444
0.072668836 -0.092765585 0.12850803
0.073296025 -0.092765585 0.12850803
0.073923208 -0.092765585 0.12850803
0.07452254 -0.092842981 0.12857208
0.066974156 -0.093363509 0.12819296
0.067600869 -0.093363509 0.12819296
0.068253078 -0.093286291 0.12812877
0.068905748 -0.093209058 0.12806454
0.069558896 -0.093131855 0.12800035
0.070212521 -0.093054622 0.12793614
0.070866592 -0.092977419 0.12787196
0.071521141 -0.092900217 0.12780775
0.072122365 -0.092977419 0.12787196
0.072695971 -0.093131855 0.12800035
0.073323391 -0.093131855 0.12800035
0.073895596 -0.093286291 0.12812877
0.066974156 -0.093806654 0.1277498
0.067626126 -0.093729615 0.12768544
0.068329573 -0.093498439 0.12749232
0.068931475 -0.093575507 0.1275567
0.069532938 -0.093652546 0.12762107
0.070238717 -0.0934214 0.12742797
0.070893019 -0.093344361 0.12736361
0.071521141 -0.093344361 0.12736361
0.072149262 -0.093344361 0.12736361
0.072777376 -0.093344361 0.12736361
0.073378131 -0.0934214 0.12742797
0.073978417 -0.093498439 0.12749232
0.067701921 -0.093942255 0.12704851
0.068406053 -0.093711615 0.12685493
0.069111593 -0.093480945 0.12666132
0.069792576 -0.09332718 0.12653224
0.070448309 -0.093250275 0.12646769
0.07121022 -0.09286584 0.12614504
0.071787819 -0.09301962 0.12627411
0.072256871 -0.093480945 0.12666132
0.072858788 -0.093557835 0.12672584
0.073460236 -0.093634725 0.12679039
0.068839483 -0.092851654 0.12531072
0.069471814 -0.092851654 0.12531072
0.070130117 -0.092774928 0.125246
0.070762686 -0.092774928 0.125246
0.071421683 -0.092698216 0.1251813
0.072001152 -0.092851654 0.12531072
0.070597477 -0.091844201 0.12363113
0.071234263 -0.091844201 0.12363113
0.072956309 -0.092380106 0.12408519
0.072241105 -0.091225013 0.12227044
0.070578218 -0.090915382 0.12116589
0.071220621 -0.090915382 0.12116589
0.071836837 -0.090991601 0.12123106
0.072478995 -0.090991601 0.12123106
0.070037805 -0.091065377 0.12045018
0.070706874 -0.090989307 0.12038481
0.071324483 -0.091065377 0.12045018
0.071967825 -0.091065377 0.12045018
0.072611161 -0.091065377 0.12045018
0.073281176 -0.090989307 0.12038481
0.069571294 -0.090989038 0.11953658
0.070267268 -0.09083724 0.11940552
0.07086125 -0.090989038 0.11953658
0.071506232 -0.090989038 0.11953658
0.072125018 -0.09106493 0.1196021
0.072769761 -0.09106493 0.1196021
0.073414512 -0.09106493 0.1196021
0.074059255 -0.09106493 0.1196021
0.069151558 -0.090763554 0.11848927
0.069773391 -0.090839282 0.11855495
0.07042025 -0.090839282 0.11855495
0.07104136 -0.090915009 0.11862066
0.071662024 -0.090990737 0.11868635
0.072282217 -0.091066465 0.11875202
0.072954789 -0.090990737 0.11868635
0.073574513 -0.091066465 0.11875202
0.074220672 -0.091066465 0.11875202
0.069326751 -0.090692177 0.1175707
0.069950223 -0.090767741 0.11763655
0.070598722 -0.090767741 0.11763655
0.071221478 -0.09084329 0.11770241
0.071869738 -0.09084329 0.11770241
0.072465606 -0.090994418 0.11783411
0.07306052 -0.091145545 0.11796583
0.07376118 -0.090994418 0.11783411
0.07435517 -0.091145545 0.11796583
0.069501951 -0.090623111 0.11664979
0.07015232 -0.090623111 0.11664979
0.070777193 -0.09069851 0.11671583
0.071350127 -0.090924695 0.11691388
0.071973592 -0.09100011 0.11697993
0.072596595 -0.091075495 0.11704594
0.073219113 -0.091150895 0.11711198
0.073867843 -0.091150895 0.11711198
0.074516572 -0.091150895 0.11711198
0.069049932 -0.090481147 0.1156604
0.069677144 -0.090556368 0.11572659
0.07027863 -0.09070684 0.11585897
0.070904672 -0.090782076 0.11592516
0.071504503 -0.090932548 0.11605754
0.072103426 -0.09108299 0.11618991
0.072727591 -0.091158226 0.11625612
0.073351286 -0.091233462 0.11632229
0.073947854 -0.091383904 0.11645468
0.074597284 -0.091383904 0.11645468
0.069223486 -0.090416893 0.11473471
0.069827311 -0.090567023 0.11486742
0.070455462 -0.090642095 0.11493376
0.071057647 -0.090792209 0.11506648
0.071658894 -0.090942353 0.11519919
0.072233245 -0.091167539 0.11539826
0.072858579 -0.091242626 0.11546463
0.07345701 -0.091392756 0.11559734
0.074081182 -0.091467813 0.11566368
0.074704893 -0.09154287 0.11573003
0.068766087 -0.090280041 0.11374018
0.069347449 -0.090504766 0.11393975
0.069977477 -0.090579659 0.11400625
0.070581771 -0.090729445 0.1141393
0.07121063 -0.090804338 0.11420581
0.071787544 -0.091029063 0.11440539
0.072363064 -0.091253743 0.11460495
0.072963379 -0.091403559 0.11473799
0.073589183 -0.091478452 0.11480451
0.07418786 -0.091628253 0.11493756
0.074812494 -0.091703162 0.11500409
0.06888888 -0.090370074 0.11294305
0.069521002 -0.090444818 0.11300975
0.070127644 -0.090594262 0.1131431
0.070733346 -0.090743735 0.11327648
0.07133811 -0.090893209 0.11340986
0.0719162 -0.091117397 0.11360991
0.072518855 -0.09126687 0.11374329
0.073094368 -0.091491088 0.11394337
0.073721342 -0.091565818 0.11401004
0.074347854 -0.091640562 0.11407673
0.068402231 -0.090312615 0.11201057
0.069011673 -0.090461731 0.11214426
0.06964498 -0.090536296 0.11221112
0.07027781 -0.090610877 0.11227798
0.070859656 -0.090834588 0.11247854
0.071465589 -0.090983734 0.11261223
0.072070576 -0.091132864 0.11274594
0.072648674 -0.091356561 0.11294651
0.07325156 -0.091505706 0.1130802
0.073853508 -0.091654837 0.11321391
0.068499535 -0.090480655 0.11127682
0.069109917 -0.090629473 0.11141086
0.069744147 -0.09070389 0.11147788
0.070377916 -0.090778291 0.11154489
0.070985958 -0.090927079 0.11167893
0.071618564 -0.091001481 0.11174594
0.072199225 -0.0912247 0.11194701
0.072804458 -0.091373518 0.11208105
0.07340876 -0.091522306 0.11221506
0.074038535 -0.091596708 0.1122821
0.06859684 -0.090650052 0.11054173
0.06923271 -0.090724304 0.11060894
0.069868118 -0.090798512 0.11067611
0.07047803 -0.090947002 0.11081047
0.07108701 -0.091095477 0.11094485
0.071695052 -0.091243953 0.11107922
0.072302148 -0.091392428 0.11121358
0.07290832 -0.091540903 0.11134796
0.073565945 -0.091540903 0.11134796
0.068767115 -0.090598539 0.10960329
0.069429189 -0.090598539 0.10960329
0.070041671 -0.090746686 0.10973799
0.070678249 -0.09082076 0.10980535
0.071238585 -0.091117054 0.11007473
0.071873523 -0.091191128 0.11014211
0.072482258 -0.091339275 0.11027679
0.073116034 -0.091413334 0.11034414
0.073670745 -0.091709629 0.11061355
0.068913057 -0.090623289 0.10873005
0.069601104 -0.09054935 0.10866253
0.070240021 -0.090623289 0.10873005
0.070828415 -0.090844989 0.1089326
0.071415417 -0.091066688 0.10913514
0.072051995 -0.091140628 0.10920265
0.072662368 -0.091288432 0.10933769
0.07319393 -0.091657966 0.10967527
0.068538666 -0.090207532 0.10744873
0.069107659 -0.090502486 0.10771945
0.069822133 -0.090355009 0.10758407
0.070413575 -0.090576246 0.10778713
0.071028642 -0.090723708 0.10792249
0.071592249 -0.091018677 0.1081932
0.072255969 -0.091018677 0.1081932
0.072893947 -0.091092438 0.1082609
0.068707302 -0.090163648 0.10650267
0.069350913 -0.09023723 0.10657053
0.069994047 -0.090310797 0.10663836
0.070587136 -0.090531513 0.10684189
0.071203835 -0.090678662 0.10697758
0.071844868 -0.090752259 0.10704544
0.072485432 -0.090825826 0.10711327
0.068301797 -0.089828432 0.10528223
0.068875939 -0.090122074 0.10555428
0.069521189 -0.090195507 0.10562231
0.070165962 -0.09026891 0.1056903
0.070810273 -0.090342298 0.10575831
0.071404055 -0.090562537 0.10596237
0.0720217 -0.090709358 0.1060984
0.072689399 -0.090709358 0.1060984
0.068468794 -0.089789852 0.10433087
0.069092758 -0.089936346 0.10446723
0.069691464 -0.090156063 0.10467175
0.070337877 -0.090229318 0.10473993
0.070983827 -0.090302557 0.10480811
0.071629301 -0.090375811 0.10487629
0.072249055 -0.090522304 0.10501266
0.072918862 -0.090522304 0.10501266
0.073537201 -0.090668797 0.10514902
0.068588078 -0.089899749 0.10351388
0.069237307 -0.089972809 0.1035822
0.06986174 -0.09011896 0.10371891
0.070509791 -0.09019205 0.10378726
0.071182176 -0.09019205 0.10378726
0.071804494 -0.090338215 0.10392395
0.072476409 -0.090338215 0.10392395
0.073148325 -0.090338215 0.10392395
0.068103746 -0.089792535 0.10248971
0.068731219 -0.089938357 0.10262671
0.069381848 -0.090011299 0.10269523
0.070056342 -0.090011299 0.10269523
0.070681706 -0.090157107 0.10283226
0.07135573 -0.090157107 0.10283226
0.072004721 -0.090230018 0.10290076
0.072653241 -0.090302944 0.10296927
0.073326796 -0.090302944 0.10296927
0.074000344 -0.090302944 0.10296927
0.068198226 -0.089979008 0.10173757
0.068874359 -0.089979008 0.10173757
0.069526397 -0.090051726 0.10180625
0.070177965 -0.090124488 0.10187493
0.070853621 -0.090124488 0.10187493
0.071529284 -0.090124488 0.10187493
0.072154887 -0.090269968 0.10201228
0.072804816 -0.09034273 0.10208096
0.073479779 -0.09034273 0.10208096
0.074154727 -0.09034273 0.10208096
0.067662433 -0.090021595 0.10084644
0.06831634 -0.090094179 0.1009153
0.068993635 -0.090094179 0.1009153
0.06964685 -0.090166762 0.10098413
0.07034824 -0.090094179 0.1009153
0.071000978 -0.090166762 0.10098413
0.071628459 -0.09031193 0.10112181
0.072305053 -0.09031193 0.10112181
0.072956391 -0.090384498 0.10119063
0.073632762 -0.090384498 0.10119063
0.074309118 -0.090384498 0.10119063
0.067755982 -0.090211019 0.10009132
0.068410829 -0.090283453 0.10016035
0.06908907 -0.090283453 0.10016035
0.069767304 -0.090283453 0.10016035
0.070445538 -0.090283453 0.10016035
0.071074657 -0.090428278 0.10029835
0.071727633 -0.090500683 0.10036735
0.072405167 -0.090500683 0.10036735
0.0730827 -0.090500683 0.10036735
0.073734738 -0.090573102 0.10043637
0.074437767 -0.090500683 0.10036735
0.067826152 -0.090474024 0.099404067
0.068481706 -0.090546265 0.099473238
0.06916064 -0.090546265 0.099473238
0.069815487 -0.090618521 0.099542424
0.070518523 -0.090546265 0.099473238
0.071172893 -0.090618521 0.099542424
0.071851596 -0.090618521 0.099542424
0.07250528 -0.090690777 0.099611565
0.07320901 -0.090618521 0.099542424
0.073862225 -0.090690777 0.099611565
0.07454069 -0.090690777 0.099611565
0.067896314 -0.090738028 0.098715812
0.068552569 -0.09081009 0.098785147
0.06925606 -0.090738028 0.098715812
0.06993594 -0.090738028 0.098715812
0.070615813 -0.090738028 0.098715812
0.071295694 -0.090738028 0.098715812
0.071950771 -0.09081009 0.098785147
0.072630413 -0.09081009 0.098785147
0.073310055 -0.09081009 0.098785147
0.073989704 -0.09081009 0.098785147
0.074669339 -0.09081009 0.098785147
0.068013258 -0.09085916 0.097887546
0.068694308 -0.09085916 0.097887546
0.069375351 -0.09085916 0.097887546
0.070056401 -0.09085916 0.097887546
0.070737444 -0.09085916 0.097887546
0.071418494 -0.09085916 0.097887546
0.072074741 -0.090931088 0.09795706
0.072755553 -0.090931088 0.09795706
0.073436365 -0.090931088 0.09795706
0.074117184 -0.090931088 0.09795706
0.074797988 -0.090931088 0.09795706
0.068153583 -0.090910226 0.096987978
0.068836041 -0.090910226 0.096987978
0.069518492 -0.090910226 0.096987978
0.070200935 -0.090910226 0.096987978
0.070859075 -0.090981975 0.097057641
0.071541287 -0.090981975 0.097057641
0.072223507 -0.090981975 0.097057641
0.072905719 -0.090981975 0.097057641
0.073587939 -0.090981975 0.097057641
0.074244663 -0.091053739 0.097127318
0.074926637 -0.091053739 0.097127318
0.067586899 -0.091034859 0.096156254
0.068270527 -0.091034859 0.096156254
0.068954147 -0.091034859 0.096156254
0.069661632 -0.090963259 0.096086398
0.070345484 -0.090963259 0.096086398
0.071005017 -0.091034859 0.096156254
0.07166408 -0.09110643 0.096226066
0.07234747 -0.09110643 0.096226066
0.073030859 -0.09110643 0.096226066
0.073714249 -0.09110643 0.096226066
0.074397638 -0.09110643 0.096226066
0.068387471 -0.091161117 0.095322847
0.069072269 -0.091161117 0.095322847
0.069780916 -0.091089696 0.095252857
0.070490032 -0.091018274 0.095182836
0.071150973 -0.091089696 0.095252857
0.07178688 -0.091232553 0.095392853
0.072471432 -0.091232553 0.095392853
0.073181026 -0.091161117 0.095322847
0.073865823 -0.091161117 0.095322847
0.074525118 -0.091232553 0.095392853
0.067841597 -0.091217816 0.094417647
0.068527795 -0.091217816 0.094417647
0.069214001 -0.091217816 0.094417647
0.069900192 -0.091217816 0.094417647
0.070634574 -0.091075301 0.094277307
0.071321249 -0.091075301 0.094277307
0.071934238 -0.091289058 0.094487816
0.072620198 -0.091289058 0.094487816
0.073306166 -0.091289058 0.094487816
0.073992133 -0.091289058 0.094487816
0.074678101 -0.091289058 0.094487816
0.068691514 -0.091205388 0.09344013
0.069402978 -0.091134295 0.093369782
0.070091054 -0.091134295 0.093369782
0.07080321 -0.091063201 0.093299463
0.071467198 -0.091134295 0.093369782
0.07213071 -0.091205388 0.09344013
0.072768964 -0.091347545 0.093580768
0.073456332 -0.091347545 0.093580768
0.0741437 -0.091347545 0.093580768
0.068188913 -0.091124356 0.092389777
0.068878621 -0.091124356 0.092389777
0.069615588 -0.090982497 0.092248783
0.070305765 -0.090982497 0.092248783
0.070995942 -0.090982497 0.092248783
0.071637474 -0.091124356 0.092389777
0.072302625 -0.091195285 0.092460245
0.073016897 -0.091124356 0.092389777
0.073681578 -0.091195285 0.092460245
0.074345797 -0.091266215 0.092530772
0.069135897 -0.090833694 0.091124788
0.06982819 -0.090833694 0.091124788
0.070520476 -0.090833694 0.091124788
0.071164578 -0.09097521 0.091266125
0.071856402 -0.09097521 0.091266125
0.072499096 -0.091116741 0.091407448
0.073190451 -0.091116741 0.091407448
0.073831744 -0.091258273 0.091548771
0.074522629 -0.091258273 0.091548771
0.069299616 -0.090829059 0.090139478
0.069969922 -0.090899646 0.090210304
0.070687473 -0.090829059 0.090139478
0.07135731 -0.090899646 0.090210304
0.071978025 -0.091111436 0.090422809
0.072671011 -0.091111436 0.090422809
0.073364004 -0.091111436 0.090422809
0.07405699 -0.091111436 0.090422809
0.070158899 -0.090826735 0.089151859
0.070854463 -0.090826735 0.089151859
0.071501851 -0.090967596 0.089293852
0.072172627 -0.091038018 0.089364842
0.07286749 -0.091038018 0.089364842
0.073562354 -0.091038018 0.089364842
0.074232183 -0.091108456 0.089435846
0.070418753 -0.090545684 0.087877274
0.071116894 -0.090545684 0.087877274
0.071766853 -0.090686202 0.088019595
0.072391555 -0.090896994 0.088233069
0.073113084 -0.090826735 0.088161916
0.073810287 -0.090826735 0.088161916
0.070702218 -0.090198174 0.086527735
0.071379319 -0.090268269 0.086599052
0.072007753 -0.090478584 0.086813033
0.072610483 -0.09075895 0.087098315
0.073309556 -0.09075895 0.087098315
0.070962064 -0.089924589 0.085245684
0.071617879 -0.090064436 0.085388675
0.072272755 -0.090204298 0.085531667
0.072878055 -0.090484008 0.085817605
0.073530592 -0.090623885 0.085960582
0.071198292 -0.089724377 0.084031671
0.07180874 -0.090003446 0.08431828
0.072417304 -0.090282515 0.084604919
0.070133857 -0.089179501 0.082455248
0.070843242 -0.089179501 0.082455248
0.071481764 -0.089388296 0.082670689
0.072166584 -0.089457914 0.082742527
0.072850943 -0.089527503 0.082814336
0.073559158 -0.089527503 0.082814336
0 0 0 1 0 0 0 1 0 0 0 1 0 0 0 0 0 510 1 0 0
