ply
format ascii 1.0
comment PCL generated
element vertex 547
property float x
property float y
property float z
element camera 1
property float view_px
property float view_py
property float view_pz
property float x_axisx
property float x_axisy
property float x_axisz
property float y_axisx
property float y_axisy
property float y_axisz
property float z_axisx
property float z_axisy
property float z_axisz
property float focal
property float scalex
property float scaley
property float centerx
property float centery
property int viewportx
property int viewporty
property float k1
property float k2
end_header
0.069111593 -0.088588044 0.13155422
0.069766618 -0.088509321 0.13149148
0.070369706 -0.088588044 0.13155422
0.070998751 -0.088588044 0.13155422
0.071601145 -0.088666752 0.13161692
0.067828223 -0.089111388 0.13117227
0.068482541 -0.089032859 0.1311094
0.069111593 -0.089032859 0.1311094
0.069714688 -0.089111388 0.13117227
0.070343509 -0.089111388 0.13117227
0.070972323 -0.089111388 0.13117227
0.071574479 -0.089189947 0.13123517
0.072176166 -0.089268491 0.13129804
0.072777376 -0.089347035 0.13136092
0.067174368 -0.089634418 0.13079068
0.067777701 -0.089712799 0.13085373
0.068431549 -0.089634418 0.13079068
0.069085866 -0.089556038 0.13072763
0.069714688 -0.089556038 0.13072763
0.070343509 -0.089556038 0.13072763
0.070945889 -0.089634418 0.13079068
0.071547814 -0.089712799 0.13085373
0.072149262 -0.089791179 0.13091677
0.072723113 -0.089947909 0.13104284
0.073378131 -0.089869559 0.13097982
0.066496201 -0.090235338 0.13047263
0.067149349 -0.090157107 0.13040942
0.067777701 -0.090157107 0.13040942
0.068406053 -0.090157107 0.13040942
0.069060132 -0.090078905 0.13034621
0.069688715 -0.090078905 0.13034621
0.070317306 -0.090078905 0.13034621
0.070919462 -0.090157107 0.13040942
0.071521141 -0.090235338 0.13047263
0.072122365 -0.090313539 0.13053584
0.072723113 -0.090391725 0.13059902
0.073323391 -0.090469956 0.13066225
0.073923208 -0.090548158 0.13072546
0.066496201 -0.090679482 0.13002849
0.067124315 -0.090679482 0.13002849
0.067777701 -0.090601414 0.1299651
0.068380557 -0.090679482 0.13002849
0.069008671 -0.090679482 0.13002849
0.069662757 -0.090601414 0.1299651
0.070291109 -0.090601414 0.1299651
0.070893019 -0.090679482 0.13002849
0.071521141 -0.090679482 0.13002849
0.072095469 -0.090835541 0.13015521
0.072723113 -0.090835541 0.13015521
0.073323391 -0.090913609 0.1302186
0.073923208 -0.090991646 0.13028197
0.07452254 -0.091069698 0.13034534
0.065818965 -0.091279358 0.12971139
0.066471405 -0.091201499 0.12964788
0.067099288 -0.091201499 0.12964788
0.067727178 -0.091201499 0.12964788
0.068355061 -0.091201499 0.12964788
0.069008671 -0.091123626 0.12958434
0.069636784 -0.091123626 0.12958434
0.070238717 -0.091201499 0.12964788
0.070866592 -0.091201499 0.12964788
0.071467817 -0.091279358 0.12971139
0.072095469 -0.091279358 0.12971139
0.072695971 -0.091357261 0.12977494
0.073296025 -0.091435134 0.12983848
0.073867999 -0.091590896 0.12996557
0.074466862 -0.091668785 0.13002911
0.075093344 -0.091668785 0.13002911
0.065818965 -0.091723174 0.12926759
0.066446617 -0.091723174 0.12926759
0.067074262 -0.091723174 0.12926759
0.067701921 -0.091723174 0.12926759
0.068355061 -0.091645479 0.1292039
0.068982944 -0.091645479 0.1292039
0.069610827 -0.091645479 0.1292039
0.070238717 -0.091645479 0.1292039
0.070866592 -0.091645479 0.1292039
0.071467817 -0.091723174 0.12926759
0.072068557 -0.091800898 0.12933129
0.072668836 -0.091878608 0.12939501
0.073296025 -0.091878608 0.12939501
0.073867999 -0.092034042 0.12952241
0.074494705 -0.092034042 0.12952241
0.075093344 -0.092111781 0.12958613
0.065794408 -0.092244551 0.12888765
0.066421822 -0.092244551 0.12888765
0.067074262 -0.09216699 0.12882377
0.067701921 -0.09216699 0.12882377
0.068329573 -0.09216699 0.12882377
0.068957217 -0.09216699 0.12882377
0.069610827 -0.092089459 0.12875992
0.070238717 -0.092089459 0.12875992
0.070866592 -0.092089459 0.12875992
0.071494475 -0.092089459 0.12875992
0.072095469 -0.09216699 0.12882377
0.072695971 -0.092244551 0.12888765
0.073296025 -0.092322096 0.12895152
0.073895596 -0.092399657 0.1290154
0.074494705 -0.092477202 0.12907927
0.075093344 -0.092554763 0.12914315
0.066421822 -0.092688203 0.128444
0.067049235 -0.092688203 0.128444
0.067701921 -0.092610806 0.12837996
0.068329573 -0.092610806 0.12837996
0.068982944 -0.092533439 0.12831593
0.069636784 -0.092456073 0.1282519
0.070264906 -0.092456073 0.1282519
0.070893019 -0.092456073 0.1282519
0.071494475 -0.092533439 0.12831593
0.072068557 -0.092688203 0.128444
0.072695971 -0.092688203 0.128444
0.073296025 -0.092765585 0.12850803
0.073867999 -0.092920363 0.12863611
0.074494705 -0.092920363 0.12863611
0.066421822 -0.093131855 0.12800035
0.067074262 -0.093054622 0.12793614
0.067727178 -0.092977419 0.12787196
0.068380557 -0.092900217 0.12780775
0.069008671 -0.092900217 0.12780775
0.069636784 -0.092900217 0.12780775
0.070291109 -0.092822984 0.12774354
0.070945889 -0.092745766 0.12767935
0.071547814 -0.092822984 0.12774354
0.072149262 -0.092900217 0.12780775
0.072723113 -0.093054622 0.12793614
0.073296025 -0.093209058 0.12806454
0.073895596 -0.093286291 0.12812877
0.074466862 -0.093440741 0.12825717
0.067074262 -0.093498439 0.12749232
0.067727178 -0.0934214 0.12742797
0.068380557 -0.093344361 0.12736361
0.069034405 -0.093267292 0.12729923
0.069688715 -0.093190253 0.12723486
0.070291109 -0.093267292 0.12729923
0.070945889 -0.093190253 0.12723486
0.071601145 -0.093113184 0.12717049
0.072203062 -0.093190253 0.12723486
0.072723113 -0.093498439 0.12749232
0.073323391 -0.093575507 0.1275567
0.073895596 -0.093729615 0.12768544
0.067878753 -0.093404055 0.12659676
0.068686515 -0.09286584 0.12614504
0.069317438 -0.09286584 0.12614504
0.069974326 -0.092788965 0.1260805
0.070605494 -0.092788965 0.1260805
0.071236648 -0.092788965 0.1260805
0.071787819 -0.09301962 0.12627411
0.072310671 -0.09332718 0.12653224
0.072913058 -0.093404055 0.12659676
0.073460236 -0.093634725 0.12679039
0.074006014 -0.093865395 0.126984
0.068131365 -0.093081817 0.12550482
0.068763003 -0.093081817 0.12550482
0.069471814 -0.092851654 0.12531072
0.070052229 -0.093005091 0.12544011
0.070657894 -0.093081817 0.12550482
0.071315952 -0.093005091 0.12544011
0.07194782 -0.093005091 0.12544011
0.072525889 -0.093158528 0.12556949
0.073103003 -0.093311965 0.12569889
0.068992466 -0.09283945 0.12447439
0.069703385 -0.092609778 0.1242798
0.070389763 -0.092456669 0.12415007
0.070998475 -0.092533216 0.12421492
0.071633145 -0.092533216 0.12421492
0.072267823 -0.092533216 0.12421492
0.072902501 -0.092533216 0.12421492
0.07384342 -0.093451887 0.12499331
0.070909053 -0.09137781 0.12240049
0.071496248 -0.091530591 0.12253056
0.072108939 -0.091606975 0.12259559
0.071064837 -0.091372713 0.12155706
0.071653441 -0.091525167 0.12168746
0.072293967 -0.091525167 0.12168746
0.07288117 -0.091677606 0.12181784
0.070088796 -0.090913266 0.12031946
0.070706874 -0.090989307 0.12038481
0.071298517 -0.091141433 0.12051554
0.071994029 -0.090989307 0.12038481
0.072611161 -0.091065377 0.12045018
0.073281176 -0.090989307 0.12038481
0.069546036 -0.09106493 0.1196021
0.070216276 -0.090989038 0.11953658
0.070938446 -0.090761334 0.11933997
0.071558163 -0.09083724 0.11940552
0.072151214 -0.090989038 0.11953658
0.072769761 -0.09106493 0.1196021
0.07344117 -0.090989038 0.11953658
0.069101505 -0.090915009 0.11862066
0.069748126 -0.090915009 0.11862066
0.070369251 -0.090990737 0.11868635
0.071015634 -0.090990737 0.11868635
0.071662024 -0.090990737 0.11868635
0.072282217 -0.091066465 0.11875202
0.072901927 -0.091142192 0.11881775
0.073574513 -0.091066465 0.11875202
0.074220672 -0.091066465 0.11875202
0.069351785 -0.090616614 0.11750482
0.069924966 -0.09084329 0.11770241
0.07054773 -0.090918869 0.11776827
0.071195744 -0.090918869 0.11776827
0.071817815 -0.090994418 0.11783411
0.072413206 -0.091145545 0.11796583
0.07306052 -0.091145545 0.11796583
0.073707849 -0.091145545 0.11796583
0.069501951 -0.090623111 0.11664979
0.070127055 -0.09069851 0.11671583
0.070700705 -0.090924695 0.11691388
0.071350127 -0.090924695 0.11691388
0.071973592 -0.09100011 0.11697993
0.072596595 -0.091075495 0.11704594
0.073219113 -0.091150895 0.11711198
0.073867843 -0.091150895 0.11711198
0.074516572 -0.091150895 0.11711198
0.069074728 -0.090405911 0.11559419
0.069677144 -0.090556368 0.11572659
0.070253365 -0.090782076 0.11592516
0.07085368 -0.090932548 0.11605754
0.071504503 -0.090932548 0.11605754
0.072103426 -0.09108299 0.11618991
0.072753794 -0.09108299 0.11618991
0.073377714 -0.091158226 0.11625612
0.074027851 -0.091158226 0.11625612
0.074651085 -0.091233462 0.11632229
0.069223486 -0.090416893 0.11473471
0.069827311 -0.090567023 0.11486742
0.070430197 -0.090717167 0.11500014
0.071032159 -0.090867266 0.11513284
0.071633168 -0.09101741 0.11526555
0.072233245 -0.091167539 0.11539826
0.072832383 -0.091317669 0.11553097
0.07345701 -0.091392756 0.11559734
0.074107848 -0.091392756 0.11559734
0.07473179 -0.091467813 0.11566368
0.069372252 -0.090429857 0.11387321
0.069977477 -0.090579659 0.11400625
0.070581771 -0.090729445 0.1141393
0.07121063 -0.090804338 0.11420581
0.071787544 -0.091029063 0.11440539
0.072363064 -0.091253743 0.11460495
0.072963379 -0.091403559 0.11473799
0.073589183 -0.091478452 0.11480451
0.07418786 -0.091628253 0.11493756
0.068962559 -0.090145871 0.11274299
0.069521002 -0.090444818 0.11300975
0.070127644 -0.090594262 0.1131431
0.070733346 -0.090743735 0.11327648
0.071312606 -0.090967953 0.11347656
0.0719162 -0.091117397 0.11360991
0.072492883 -0.091341615 0.11380999
0.073094368 -0.091491088 0.11394337
0.073694907 -0.091640562 0.11407673
0.074321188 -0.091715276 0.11414342
0.068450883 -0.090163469 0.11187686
0.069036238 -0.090387166 0.1120774
0.06964498 -0.090536296 0.11221112
0.07022775 -0.090760022 0.11241169
0.070859656 -0.090834588 0.11247854
0.071465589 -0.090983734 0.11261223
0.072044849 -0.09120743 0.11281279
0.072622709 -0.091431141 0.11301337
0.073225372 -0.091580257 0.11314705
0.073853508 -0.091654837 0.11321391
0.074454524 -0.091803983 0.11334762
0.068548188 -0.090331852 0.11114277
0.069159031 -0.090480655 0.11127682
0.069768943 -0.090629473 0.11141086
0.070402943 -0.09070389 0.11147788
0.07101123 -0.090852663 0.1116119
0.071593069 -0.091075897 0.11181296
0.072173499 -0.091299102 0.11201403
0.072778493 -0.09144792 0.11214805
0.07335636 -0.091671109 0.11234911
0.074012108 -0.091671109 0.11234911
0.068718463 -0.090278864 0.11020581
0.069330946 -0.090427339 0.11034019
0.069917709 -0.090650052 0.11054173
0.07052809 -0.090798512 0.11067611
0.071137533 -0.090947002 0.11081047
0.071695052 -0.091243953 0.11107922
0.072302148 -0.091392428 0.11121358
0.07290832 -0.091540903 0.11134796
0.073487349 -0.091763616 0.11154951
0.068297759 -0.090005979 0.10906452
0.068888739 -0.090228185 0.10926655
0.069453746 -0.09052448 0.10953596
0.070041671 -0.090746686 0.10973799
0.070703283 -0.090746686 0.10973799
0.071263842 -0.091042981 0.11000741
0.071848027 -0.091265187 0.11020944
0.072482258 -0.091339275 0.11027679
0.073064104 -0.091561481 0.11047885
0.073696941 -0.09163557 0.1105462
0.069034688 -0.090253726 0.10839248
0.069625661 -0.09047547 0.10859503
0.070264816 -0.09054935 0.10866253
0.070828415 -0.090844989 0.1089326
0.071491197 -0.090844989 0.1089326
0.072026506 -0.091214508 0.10927017
0.072662368 -0.091288432 0.10933769
0.073297784 -0.091362327 0.1094052
0.069277935 -0.089986309 0.10724568
0.06984669 -0.090281278 0.10751642
0.070487961 -0.090355009 0.10758407
0.071078695 -0.090576246 0.10778713
0.071693301 -0.090723708 0.10792249
0.072281457 -0.090944946 0.10812555
0.072919682 -0.091018677 0.1081932
0.073583394 -0.091018677 0.1081932
0.068851843 -0.089722201 0.10609561
0.069496863 -0.089795783 0.10616343
0.070067726 -0.090090081 0.10643482
0.070686303 -0.09023723 0.10657053
0.071278915 -0.090457946 0.10677405
0.071895391 -0.090605095 0.10690975
0.072510928 -0.090752259 0.10704544
0.073151253 -0.090825826 0.10711327
0.068444937 -0.089387983 0.10487418
0.069020487 -0.08968161 0.1051462
0.069642819 -0.089828432 0.10528223
0.070288762 -0.08990185 0.10535026
0.070859857 -0.090195507 0.10562231
0.071479142 -0.090342298 0.10575831
0.072046965 -0.09063594 0.10603037
0.072714895 -0.09063594 0.10603037
0.07335709 -0.090709358 0.1060984
0.073998831 -0.090782762 0.10616638
0.068588078 -0.089423642 0.10398999
0.069189124 -0.089643359 0.10419451
0.069813095 -0.089789852 0.10433087
0.07043612 -0.089936346 0.10446723
0.071033418 -0.090156063 0.10467175
0.071654335 -0.090302557 0.10480811
0.072249055 -0.090522304 0.10501266
0.072918862 -0.090522304 0.10501266
0.073665857 -0.090302557 0.10480811
0.068056501 -0.089461252 0.10310382
0.068707362 -0.089534357 0.10317217
0.069309577 -0.089753583 0.10337719
0.069934718 -0.089899749 0.10351388
0.070583478 -0.089972809 0.1035822
0.071206972 -0.09011896 0.10371891
0.071829528 -0.090265125 0.10385559
0.072476409 -0.090338215 0.10392395
0.073148325 -0.090338215 0.10392395
0.073794506 -0.090411291 0.10399228
0.067475319 -0.089646727 0.10235269
0.068103746 -0.089792535 0.10248971
0.068778932 -0.089792535 0.10248971
0.069405943 -0.089938357 0.10262671
0.070056342 -0.090011299 0.10269523
0.070730828 -0.090011299 0.10269523
0.07135573 -0.090157107 0.10283226
0.072004721 -0.090230018 0.10290076
0.072653241 -0.090302944 0.10296927
0.073301308 -0.090375856 0.10303777
0.073974617 -0.090375856 0.10303777
0.067568876 -0.089833498 0.10160024
0.06822186 -0.089906231 0.10166889
0.068874359 -0.089979008 0.10173757
0.069550484 -0.089979008 0.10173757
0.070202291 -0.090051726 0.10180625
0.070853621 -0.090124488 0.10187493
0.071479701 -0.090269968 0.10201228
0.072154887 -0.090269968 0.10201228
0.072804816 -0.09034273 0.10208096
0.073454283 -0.090415463 0.10214961
0.074129 -0.090415463 0.10214961
0.067639038 -0.090094179 0.1009153
0.06831634 -0.090094179 0.1009153
0.068969786 -0.090166762 0.10098413
0.06964685 -0.090166762 0.10098413
0.070323914 -0.090166762 0.10098413
0.070951864 -0.09031193 0.10112181
0.071628459 -0.09031193 0.10112181
0.072280027 -0.090384498 0.10119063
0.072956391 -0.090384498 0.10119063
0.073581763 -0.090529665 0.10132831
0.074257657 -0.090529665 0.10132831
0.067054361 -0.090283453 0.10016035
0.067732595 -0.090283453 0.10016035
0.068410829 -0.090283453 0.10016035
0.069041356 -0.090428278 0.10029835
0.069767304 -0.090283453 0.10016035
0.070396893 -0.090428278 0.10029835
0.071074657 -0.090428278 0.10029835
0.071727633 -0.090500683 0.10036735
0.072380133 -0.090573102 0.10043637
0.073057435 -0.090573102 0.10043637
0.073734738 -0.090573102 0.10043637
0.074386306 -0.090645522 0.10050537
0.075089335 -0.090573102 0.10043637
0.067100666 -0.090618521 0.099542424
0.067802764 -0.090546265 0.099473238
0.06845808 -0.090618521 0.099542424
0.069136783 -0.090618521 0.099542424
0.069815487 -0.090618521 0.099542424
0.07049419 -0.090618521 0.099542424
0.071172893 -0.090618521 0.099542424
0.071826808 -0.090690777 0.099611565
0.07250528 -0.090690777 0.099611565
0.073183753 -0.090690777 0.099611565
0.073862225 -0.090690777 0.099611565
0.07454069 -0.090690777 0.099611565
0.075193189 -0.090763032 0.099680766
0.067146979 -0.090954274 0.098923817
0.067872927 -0.09081009 0.098785147
0.068552569 -0.09081009 0.098785147
0.069232211 -0.09081009 0.098785147
0.069911852 -0.09081009 0.098785147
0.070615813 -0.090738028 0.098715812
0.071271136 -0.09081009 0.098785147
0.071950771 -0.09081009 0.098785147
0.072630413 -0.09081009 0.098785147
0.073259532 -0.090954274 0.098923817
0.073938712 -0.090954274 0.098923817
0.067216434 -0.09121877 0.098235071
0.067919701 -0.091146842 0.098165557
0.068599813 -0.091146842 0.098165557
0.069303781 -0.091074929 0.098096073
0.069984123 -0.091074929 0.098096073
0.070713118 -0.090931088 0.09795706
0.071393929 -0.090931088 0.09795706
0.072074741 -0.090931088 0.09795706
0.072705492 -0.091074929 0.098096073
0.073436365 -0.090931088 0.09795706
0.074040696 -0.091146842 0.098165557
0.074746527 -0.091074929 0.098096073
0.068036646 -0.091268986 0.097336307
0.068717927 -0.091268986 0.097336307
0.069470771 -0.091053739 0.097127318
0.07015276 -0.091053739 0.097127318
0.070834741 -0.091053739 0.097127318
0.071541287 -0.090981975 0.097057641
0.072223507 -0.090981975 0.097057641
0.072880685 -0.091053739 0.097127318
0.073562674 -0.091053739 0.097127318
0.074193664 -0.091197252 0.097266644
0.074875176 -0.091197252 0.097266644
0.068906911 -0.091178015 0.096295893
0.069590062 -0.091178015 0.096295893
0.070297301 -0.09110643 0.096226066
0.070980698 -0.09110643 0.096226066
0.07166408 -0.09110643 0.096226066
0.072322682 -0.091178015 0.096295893
0.073005833 -0.091178015 0.096295893
0.073714249 -0.09110643 0.096226066
0.074397638 -0.09110643 0.096226066
0.068364076 -0.091232553 0.095392853
0.069072269 -0.091161117 0.095322847
0.069780916 -0.091089696 0.095252857
0.070465937 -0.091089696 0.095252857
0.071126647 -0.091161117 0.095322847
0.071811438 -0.091161117 0.095322847
0.072496235 -0.091161117 0.095322847
0.073181026 -0.091161117 0.095322847
0.073865823 -0.091161117 0.095322847
0.074550621 -0.091161117 0.095322847
0.068504408 -0.091289058 0.094487816
0.069214001 -0.091217816 0.094417647
0.069947906 -0.091075301 0.094277307
0.070586391 -0.091217816 0.094417647
0.071272597 -0.091217816 0.094417647
0.071934238 -0.091289058 0.094487816
0.072620198 -0.091289058 0.094487816
0.073306166 -0.091289058 0.094487816
0.073992133 -0.091289058 0.094487816
0.074652597 -0.091360331 0.094557986
0.068714909 -0.091134295 0.093369782
0.069402978 -0.091134295 0.093369782
0.070114903 -0.091063201 0.093299463
0.070779122 -0.091134295 0.093369782
0.071442872 -0.091205388 0.09344013
0.072081596 -0.091347545 0.093580768
0.072768964 -0.091347545 0.093580768
0.073431298 -0.091418669 0.093651101
0.0741437 -0.091347545 0.093580768
0.068235219 -0.090982497 0.092248783
0.068948783 -0.090911582 0.092178285
0.069662832 -0.090840638 0.092107788
0.070329614 -0.090911582 0.092178285
0.070995942 -0.090982497 0.092248783
0.071613155 -0.091195285 0.092460245
0.072278067 -0.091266215 0.092530772
0.072967306 -0.091266215 0.092530772
0.073631525 -0.091337115 0.092601255
0.07432054 -0.091337115 0.092601255
0.069135897 -0.090833694 0.091124788
0.069851808 -0.090762943 0.091054142
0.070520476 -0.090833694 0.091124788
0.071164578 -0.09097521 0.091266125
0.071832076 -0.091045976 0.091336772
0.072499096 -0.091116741 0.091407448
0.073190451 -0.091116741 0.091407448
0.073806718 -0.091329008 0.091619417
0.069276229 -0.090899646 0.090210304
0.069993541 -0.090829059 0.090139478
0.070663616 -0.090899646 0.090210304
0.071333215 -0.090970248 0.090281144
0.071978025 -0.091111436 0.090422809
0.072621897 -0.09125264 0.090564445
0.073314413 -0.09125264 0.090564445
0.074006937 -0.09125264 0.090564445
0.070158899 -0.090826735 0.089151859
0.070854463 -0.090826735 0.089151859
0.071477763 -0.091038018 0.089364842
0.072172627 -0.091038018 0.089364842
0.072842926 -0.091108456 0.089435846
0.073512763 -0.091178879 0.089506805
0.070418753 -0.090545684 0.087877274
0.071116894 -0.090545684 0.087877274
0.071766853 -0.090686202 0.088019595
0.072391555 -0.090896994 0.088233069
0.073113084 -0.090826735 0.088161916
0.073735908 -0.091037527 0.088375375
0.070024654 -0.090128064 0.086456403
0.070702218 -0.090198174 0.086527735
0.071379319 -0.090268269 0.086599052
0.072031848 -0.090408474 0.086741701
0.072732106 -0.090408474 0.086741701
0.073407792 -0.090478584 0.086813033
0.074058227 -0.090618744 0.086955667
0.07030531 -0.089784712 0.085102722
0.071009316 -0.089784712 0.085102722
0.071665592 -0.089924589 0.085245684
0.072272755 -0.090204298 0.085531667
0.072975352 -0.090204298 0.085531667
0.073604271 -0.090414107 0.085746124
0.070539191 -0.089584857 0.083888367
0.071198292 -0.089724377 0.084031671
0.07180874 -0.090003446 0.08431828
0.072489575 -0.090073213 0.084389955
0.07319428 -0.090073213 0.084389955
0.06951616 -0.088901088 0.082167953
0.070157014 -0.089109898 0.082383409
0.070819855 -0.089249104 0.082527041
0.07143452 -0.089527503 0.082814336
0.072095014 -0.089666709 0.082957983
0.07280276 -0.089666709 0.082957983
0.073486187 -0.089736298 0.083029792
0.074169129 -0.089805916 0.08310163
0.070960179 -0.089333951 0.081593692
0.071647123 -0.089403361 0.08166568
0.072333589 -0.0894728 0.081737667
0.073067762 -0.089403361 0.08166568
0.073753759 -0.0894728 0.081737667
0.074488401 -0.089403361 0.08166568
0 0 0 1 0 0 0 1 0 0 0 1 0 0 0 0 0 547 1 0 0
