ply
format ascii 1.0
comment PCL generated
element vertex 579
property float x
property float y
property float z
element camera 1
property float view_px
property float view_py
property float view_pz
property float x_axisx
property float x_axisy
property float x_axisz
property float y_axisx
property float y_axisy
property float y_axisz
property float z_axisx
property float z_axisy
property float z_axisz
property float focal
property float scalex
property float scaley
property float centerx
property float centery
property int viewportx
property int viewporty
property float k1
property float k2
end_header
0.069766618 -0.088509321 0.13149148
0.070369706 -0.088588044 0.13155422
0.070972323 -0.088666752 0.13161692
0.067802958 -0.089189947 0.13123517
0.068431549 -0.089189947 0.13123517
0.069060132 -0.089189947 0.13123517
0.069714688 -0.089111388 0.13117227
0.070343509 -0.089111388 0.13117227
0.070972323 -0.089111388 0.13117227
0.071547814 -0.089268491 0.13129804
0.072176166 -0.089268491 0.13129804
0.067124315 -0.089791179 0.13091677
0.067752436 -0.089791179 0.13091677
0.068431549 -0.089634418 0.13079068
0.069060132 -0.089634418 0.13079068
0.069714688 -0.089556038 0.13072763
0.070343509 -0.089556038 0.13072763
0.070919462 -0.089712799 0.13085373
0.071547814 -0.089712799 0.13085373
0.072149262 -0.089791179 0.13091677
0.072777376 -0.089791179 0.13091677
0.066471405 -0.090313539 0.13053584
0.067099288 -0.090313539 0.13053584
0.067752436 -0.090235338 0.13047263
0.068380557 -0.090235338 0.13047263
0.069034405 -0.090157107 0.13040942
0.069688715 -0.090078905 0.13034621
0.070291109 -0.090157107 0.13040942
0.070919462 -0.090157107 0.13040942
0.071521141 -0.090235338 0.13047263
0.072149262 -0.090235338 0.13047263
0.072723113 -0.090391725 0.13059902
0.073350765 -0.090391725 0.13059902
0.065818965 -0.090835541 0.13015521
0.066446617 -0.090835541 0.13015521
0.067099288 -0.090757519 0.13009186
0.067727178 -0.090757519 0.13009186
0.068380557 -0.090679482 0.13002849
0.068982944 -0.090757519 0.13009186
0.069636784 -0.090679482 0.13002849
0.070291109 -0.090601414 0.1299651
0.070893019 -0.090679482 0.13002849
0.071521141 -0.090679482 0.13002849
0.072122365 -0.090757519 0.13009186
0.072723113 -0.090835541 0.13015521
0.073350765 -0.090835541 0.13015521
0.073950805 -0.090913609 0.1302186
0.065769851 -0.091435134 0.12983848
0.066421822 -0.091357261 0.12977494
0.067049235 -0.091357261 0.12977494
0.067676648 -0.091357261 0.12977494
0.068304069 -0.091357261 0.12977494
0.068982944 -0.091201499 0.12964788
0.069610827 -0.091201499 0.12964788
0.070238717 -0.091201499 0.12964788
0.070866592 -0.091201499 0.12964788
0.071467817 -0.091279358 0.12971139
0.072095469 -0.091279358 0.12971139
0.072695971 -0.091357261 0.12977494
0.073323391 -0.091357261 0.12977494
0.073950805 -0.091357261 0.12977494
0.074550383 -0.091435134 0.12983848
0.065745287 -0.091956347 0.12945871
0.066397026 -0.091878608 0.12939501
0.067049235 -0.091800898 0.12933129
0.067651391 -0.091878608 0.12939501
0.068304069 -0.091800898 0.12933129
0.068957217 -0.091723174 0.12926759
0.069584869 -0.091723174 0.12926759
0.070238717 -0.091645479 0.1292039
0.070840165 -0.091723174 0.12926759
0.071467817 -0.091723174 0.12926759
0.072068557 -0.091800898 0.12933129
0.072695971 -0.091800898 0.12933129
0.073296025 -0.091878608 0.12939501
0.073923208 -0.091878608 0.12939501
0.074550383 -0.091878608 0.12939501
0.06572073 -0.092477202 0.12907927
0.066397026 -0.092322096 0.12895152
0.067024209 -0.092322096 0.12895152
0.067651391 -0.092322096 0.12895152
0.068304069 -0.092244551 0.12888765
0.068931475 -0.092244551 0.12888765
0.069584869 -0.09216699 0.12882377
0.070238717 -0.092089459 0.12875992
0.070840165 -0.09216699 0.12882377
0.071494475 -0.092089459 0.12875992
0.072095469 -0.09216699 0.12882377
0.072695971 -0.092244551 0.12888765
0.073323391 -0.092244551 0.12888765
0.073923208 -0.092322096 0.12895152
0.074550383 -0.092322096 0.12895152
0.065745287 -0.092842981 0.12857208
0.066397026 -0.092765585 0.12850803
0.067049235 -0.092688203 0.128444
0.067651391 -0.092765585 0.12850803
0.068304069 -0.092688203 0.128444
0.068957217 -0.092610806 0.12837996
0.069610827 -0.092533439 0.12831593
0.070238717 -0.092533439 0.12831593
0.070893019 -0.092456073 0.1282519
0.071494475 -0.092533439 0.12831593
0.072068557 -0.092688203 0.128444
0.072723113 -0.092610806 0.12837996
0.073323391 -0.092688203 0.128444
0.073950805 -0.092688203 0.128444
0.074578218 -0.092688203 0.128444
0.066372231 -0.093286291 0.12812877
0.067024209 -0.093209058 0.12806454
0.067701921 -0.093054622 0.12793614
0.068329573 -0.093054622 0.12793614
0.068982944 -0.092977419 0.12787196
0.069636784 -0.092900217 0.12780775
0.070291109 -0.092822984 0.12774354
0.070919462 -0.092822984 0.12774354
0.071547814 -0.092822984 0.12774354
0.072149262 -0.092900217 0.12780775
0.072750241 -0.092977419 0.12787196
0.073378131 -0.092977419 0.12787196
0.073950805 -0.093131855 0.12800035
0.067049235 -0.093575507 0.1275567
0.067701921 -0.093498439 0.12749232
0.068380557 -0.093344361 0.12736361
0.069034405 -0.093267292 0.12729923
0.069662757 -0.093267292 0.12729923
0.070291109 -0.093267292 0.12729923
0.070919462 -0.093267292 0.12729923
0.071547814 -0.093267292 0.12729923
0.072176166 -0.093267292 0.12729923
0.072777376 -0.093344361 0.12736361
0.073378131 -0.0934214 0.12742797
0.073978417 -0.093498439 0.12749232
0.067174368 -0.093634725 0.12679039
0.06790401 -0.09332718 0.12653224
0.068533532 -0.09332718 0.12653224
0.069188789 -0.093250275 0.12646769
0.069844507 -0.0931734 0.12640318
0.070474498 -0.0931734 0.12640318
0.071104489 -0.0931734 0.12640318
0.071707815 -0.093250275 0.12646769
0.072310671 -0.09332718 0.12653224
0.072858788 -0.093557835 0.12672584
0.073405497 -0.093788505 0.12691946
0.068005055 -0.093465418 0.12582831
0.068712004 -0.093235269 0.12563421
0.069343165 -0.093235269 0.12563421
0.070000298 -0.093158528 0.12556949
0.070605494 -0.093235269 0.12563421
0.071289517 -0.093081817 0.12550482
0.071867816 -0.093235269 0.12563421
0.072445177 -0.093388706 0.12576361
0.072967328 -0.093695566 0.1260224
0.073597088 -0.093695566 0.1260224
0.069068953 -0.092609778 0.1242798
0.069857769 -0.092150435 0.12389061
0.070363797 -0.092533216 0.12421492
0.070998475 -0.092533216 0.12421492
0.071606711 -0.092609778 0.1242798
0.072374493 -0.092226982 0.12395546
0.073428631 -0.09283945 0.12447439
0.071470052 -0.091606975 0.12259559
0.072029635 -0.091836169 0.12279068
0.072801165 -0.091454193 0.12246552
0.070398107 -0.091448948 0.12162226
0.070960984 -0.091677606 0.12181784
0.071679637 -0.091448948 0.12162226
0.072320394 -0.091448948 0.12162226
0.07309451 -0.091067806 0.12129626
0.071246594 -0.091293558 0.12064627
0.071967825 -0.091065377 0.12045018
0.07266403 -0.090913266 0.12031946
0.073334508 -0.090837181 0.12025408
0.068569608 -0.088105083 0.11704652
0.069697611 -0.090609565 0.11920892
0.070318259 -0.090685472 0.11927447
0.070938446 -0.090761334 0.11933997
0.071558163 -0.09083724 0.11940552
0.072151214 -0.090989038 0.11953658
0.072769761 -0.09106493 0.1196021
0.073414512 -0.09106493 0.1196021
0.07413996 -0.09083724 0.11940552
0.068158984 -0.087810144 0.11592722
0.06861873 -0.08841598 0.11645277
0.069451898 -0.089854807 0.11770093
0.069899701 -0.090460643 0.1182265
0.070522234 -0.090536371 0.11829217
0.071067095 -0.090839282 0.11855495
0.071662024 -0.090990737 0.11868635
0.072282217 -0.091066465 0.11875202
0.072901927 -0.091142192 0.11881775
0.073574513 -0.091066465 0.11875202
0.074220672 -0.091066465 0.11875202
0.067599118 -0.087971941 0.11519977
0.068158984 -0.088274166 0.1154632
0.068667844 -0.088727564 0.11585835
0.069149107 -0.089256495 0.11631936
0.069677144 -0.089634299 0.11664866
0.07015232 -0.090163231 0.11710967
0.070700705 -0.090465471 0.11737311
0.071272932 -0.090692177 0.1175707
0.071869738 -0.09084329 0.11770241
0.072413206 -0.091145545 0.11796583
0.07306052 -0.091145545 0.11796583
0.073707849 -0.091145545 0.11796583
0.07435517 -0.091145545 0.11796583
0.075056762 -0.090994418 0.11783411
0.06647379 -0.087833434 0.1142069
0.067061253 -0.088059604 0.11440495
0.067647301 -0.088285819 0.11460304
0.068183303 -0.088662803 0.11493316
0.068692401 -0.089115188 0.11532933
0.069223486 -0.089492172 0.11565943
0.069727205 -0.089944541 0.11605556
0.07027863 -0.090246126 0.11631969
0.07085368 -0.090472341 0.11651775
0.071427315 -0.09069851 0.11671583
0.071999565 -0.090924695 0.11691388
0.072622791 -0.09100011 0.11697993
0.073219113 -0.091150895 0.11711198
0.073867843 -0.091150895 0.11711198
0.074489675 -0.091226295 0.11717799
0.067132816 -0.088299438 0.11374089
0.067695484 -0.088600367 0.11400564
0.068256281 -0.088901296 0.11427042
0.068766087 -0.089352667 0.11466755
0.069273077 -0.089804068 0.11506468
0.06977725 -0.090255469 0.11546184
0.070354417 -0.090481147 0.1156604
0.070904672 -0.090782076 0.11592516
0.071530238 -0.090857297 0.11599134
0.072129384 -0.091007754 0.11612374
0.072727591 -0.091158226 0.11625612
0.073351286 -0.091233462 0.11632229
0.074001186 -0.091233462 0.11632229
0.074597284 -0.091383904 0.11645468
0.067204386 -0.088540256 0.11307581
0.067743666 -0.088915586 0.1134076
0.068304934 -0.089215845 0.11367302
0.068815202 -0.089666218 0.11407115
0.069372252 -0.089966491 0.11433658
0.069927417 -0.090266749 0.114602
0.070480719 -0.090567023 0.11486742
0.071083143 -0.090717167 0.11500014
0.071658894 -0.090942353 0.11519919
0.072233245 -0.091167539 0.11539826
0.072832383 -0.091317669 0.11553097
0.07345701 -0.091392756 0.11559734
0.074107848 -0.091392756 0.11559734
0.07473179 -0.091467813 0.11566368
0.0672521 -0.088856965 0.11247627
0.067791849 -0.089231461 0.11280887
0.068353578 -0.089531049 0.11307496
0.068913437 -0.089830667 0.11334105
0.069496214 -0.090055361 0.1135406
0.070077591 -0.090280041 0.11374018
0.070632294 -0.090579659 0.11400625
0.071236119 -0.090729445 0.1141393
0.071761817 -0.091103956 0.1144719
0.072389022 -0.091178864 0.11453845
0.072989583 -0.091328636 0.11467147
0.073589183 -0.091478452 0.11480451
0.07418786 -0.091628253 0.11493756
0.074812494 -0.091703162 0.11500409
0.067347527 -0.089024842 0.11174268
0.067888215 -0.089398518 0.1120761
0.068426557 -0.08977221 0.11240956
0.069011673 -0.089996397 0.11260961
0.069620185 -0.090145871 0.11274299
0.070177697 -0.090444818 0.11300975
0.070783868 -0.090594262 0.1131431
0.07133811 -0.090893209 0.11340986
0.0719162 -0.091117397 0.11360991
0.072518855 -0.09126687 0.11374329
0.073094368 -0.091491088 0.11394337
0.073721342 -0.091565818 0.11401004
0.074321188 -0.091715276 0.11414342
0.067442961 -0.089194059 0.11100776
0.067960486 -0.089641482 0.11140889
0.068523854 -0.089939758 0.11167631
0.069109917 -0.090163469 0.11187686
0.069719359 -0.090312615 0.11201057
0.070302837 -0.090536296 0.11221112
0.070884913 -0.090760022 0.11241169
0.071465589 -0.090983734 0.11261223
0.072070576 -0.091132864 0.11274594
0.072648674 -0.091356561 0.11294651
0.073225372 -0.091580257 0.11314705
0.07382708 -0.091729403 0.11328076
0.074454524 -0.091803983 0.11334762
0.067514524 -0.08943902 0.11033857
0.068056852 -0.089811027 0.11067365
0.068621159 -0.090108648 0.11094174
0.06923271 -0.090257466 0.11107577
0.069843322 -0.090406269 0.11120979
0.070427977 -0.090629473 0.11141086
0.07101123 -0.090852663 0.1116119
0.07164406 -0.090927079 0.11167893
0.072199225 -0.0912247 0.11194701
0.072778493 -0.09144792 0.11214805
0.07340876 -0.091522306 0.11221506
0.074038535 -0.091596708 0.1122821
0.068177305 -0.089907676 0.10986991
0.068742782 -0.090204641 0.11013864
0.069355503 -0.090353101 0.11027302
0.069942497 -0.090575814 0.11047457
0.070553109 -0.090724304 0.11060894
0.07116279 -0.090872765 0.1107433
0.071746044 -0.091095477 0.11094485
0.072353609 -0.091243953 0.11107922
0.072960243 -0.091392428 0.11121358
0.073565945 -0.091540903 0.11134796
0.074170701 -0.091689393 0.11148232
0.068273671 -0.090080038 0.10913184
0.068864405 -0.090302259 0.1093339
0.06950286 -0.090376332 0.10940126
0.070116051 -0.09052448 0.10953596
0.070728302 -0.090672627 0.10967065
0.071314365 -0.090894833 0.1098727
0.071899027 -0.091117054 0.11007473
0.072507992 -0.091265187 0.11020944
0.073142 -0.091339275 0.11027679
0.073696941 -0.09163557 0.1105462
0.068394125 -0.090179831 0.10832496
0.069034688 -0.090253726 0.10839248
0.069674775 -0.09032765 0.10845999
0.070289604 -0.09047547 0.10859503
0.070928529 -0.09054935 0.10866253
0.071541727 -0.090697169 0.10879757
0.072102986 -0.090992808 0.10906763
0.07271383 -0.091140628 0.10920265
0.073349714 -0.091214508 0.10927017
0.068538666 -0.090207532 0.10744873
0.069180638 -0.090281278 0.10751642
0.069822133 -0.090355009 0.10758407
0.07043837 -0.090502486 0.10771945
0.071103722 -0.090502486 0.10771945
0.071718559 -0.090649977 0.10785481
0.072332457 -0.090797469 0.10799018
0.07299687 -0.090797469 0.10799018
0.073557429 -0.091092438 0.1082609
0.068063229 -0.090090081 0.10643482
0.068683207 -0.09023723 0.10657053
0.069326587 -0.090310797 0.10663836
0.069944933 -0.090457946 0.10677405
0.070611924 -0.090457946 0.10677405
0.071278915 -0.090457946 0.10677405
0.071870133 -0.090678662 0.10697758
0.072510928 -0.090752259 0.10704544
0.07317698 -0.090752259 0.10704544
0.073817074 -0.090825826 0.10711327
0.067607664 -0.08990185 0.10535026
0.068230227 -0.090048671 0.10548629
0.068827756 -0.09026891 0.1056903
0.069496863 -0.09026891 0.1056903
0.070141405 -0.090342298 0.10575831
0.070810273 -0.090342298 0.10575831
0.071404055 -0.090562537 0.10596237
0.072046965 -0.09063594 0.10603037
0.072714895 -0.09063594 0.10603037
0.07335709 -0.090709358 0.1060984
0.073998831 -0.090782762 0.10616638
0.067749403 -0.089936346 0.10446723
0.06834951 -0.090156063 0.10467175
0.068972304 -0.090302557 0.10480811
0.069642819 -0.090302557 0.10480811
0.070288762 -0.090375811 0.10487629
0.070959032 -0.090375811 0.10487629
0.071579248 -0.090522304 0.10501266
0.072223797 -0.090595543 0.10508083
0.07286787 -0.090668797 0.10514902
0.073537201 -0.090668797 0.10514902
0.074206538 -0.090668797 0.10514902
0.067843899 -0.09011896 0.10371891
0.068492651 -0.09019205 0.10378726
0.069140941 -0.090265125 0.10385559
0.069788761 -0.090338215 0.10392395
0.070460677 -0.090338215 0.10392395
0.071132585 -0.090338215 0.10392395
0.071779475 -0.090411291 0.10399228
0.07240063 -0.090557456 0.10412897
0.073020846 -0.090703592 0.10426566
0.073743045 -0.090557456 0.10412897
0.067962006 -0.090230018 0.10290076
0.068611935 -0.090302944 0.10296927
0.069285482 -0.090302944 0.10296927
0.069959037 -0.090302944 0.10296927
0.070632592 -0.090302944 0.10296927
0.071306139 -0.090302944 0.10296927
0.071979687 -0.090302944 0.10296927
0.072627984 -0.090375856 0.10303777
0.073301308 -0.090375856 0.10303777
0.073974617 -0.090375856 0.10303777
0.068103746 -0.090269968 0.10201228
0.068755075 -0.09034273 0.10208096
0.069430031 -0.09034273 0.10208096
0.070104994 -0.09034273 0.10208096
0.070779949 -0.09034273 0.10208096
0.071454905 -0.09034273 0.10208096
0.072129861 -0.09034273 0.10208096
0.072804816 -0.09034273 0.10208096
0.073479779 -0.09034273 0.10208096
0.074154727 -0.09034273 0.10208096
0.067568876 -0.09031193 0.10112181
0.06822186 -0.090384498 0.10119063
0.068898216 -0.090384498 0.10119063
0.06957458 -0.090384498 0.10119063
0.070226617 -0.090457097 0.10125948
0.070927307 -0.090384498 0.10119063
0.071603663 -0.090384498 0.10119063
0.072280027 -0.090384498 0.10119063
0.072956391 -0.090384498 0.10119063
0.073607258 -0.090457097 0.10125948
0.074309118 -0.090384498 0.10119063
0.067662433 -0.090500683 0.10036735
0.068339966 -0.090500683 0.10036735
0.068993635 -0.090573102 0.10043637
0.069670938 -0.090573102 0.10043637
0.07034824 -0.090573102 0.10043637
0.0710501 -0.090500683 0.10036735
0.071727633 -0.090500683 0.10036735
0.072405167 -0.090500683 0.10036735
0.0730827 -0.090500683 0.10036735
0.073760234 -0.090500683 0.10036735
0.074437767 -0.090500683 0.10036735
0.075141266 -0.090428278 0.10029835
0.06777937 -0.090618521 0.099542424
0.068434462 -0.090690777 0.099611565
0.069112927 -0.090690777 0.099611565
0.069815487 -0.090618521 0.099542424
0.07049419 -0.090618521 0.099542424
0.071172893 -0.090618521 0.099542424
0.071851596 -0.090618521 0.099542424
0.072530299 -0.090618521 0.099542424
0.07320901 -0.090618521 0.099542424
0.073862225 -0.090690777 0.099611565
0.074566416 -0.090618521 0.099542424
0.07524512 -0.090618521 0.099542424
0.067826152 -0.090954274 0.098923817
0.068552569 -0.09081009 0.098785147
0.069232211 -0.09081009 0.098785147
0.069911852 -0.09081009 0.098785147
0.070615813 -0.090738028 0.098715812
0.071295694 -0.090738028 0.098715812
0.071950771 -0.09081009 0.098785147
0.072630413 -0.09081009 0.098785147
0.073310055 -0.09081009 0.098785147
0.073989704 -0.09081009 0.098785147
0.074695066 -0.090738028 0.098715812
0.067943089 -0.091074929 0.098096073
0.068623438 -0.091074929 0.098096073
0.069351494 -0.090931088 0.09795706
0.070032306 -0.090931088 0.09795706
0.070713118 -0.090931088 0.09795706
0.071418494 -0.09085916 0.097887546
0.072099537 -0.09085916 0.097887546
0.072780579 -0.09085916 0.097887546
0.073436365 -0.090931088 0.09795706
0.074066184 -0.091074929 0.098096073
0.074823722 -0.09085916 0.097887546
0.068836041 -0.090910226 0.096987978
0.069518492 -0.090910226 0.096987978
0.07022503 -0.090838462 0.0969183
0.070907719 -0.090838462 0.0969183
0.071565844 -0.090910226 0.096987978
0.072223507 -0.090981975 0.097057641
0.072905719 -0.090981975 0.097057641
0.073562674 -0.091053739 0.097127318
0.074244663 -0.091053739 0.097127318
0.074926637 -0.091053739 0.097127318
0.069048643 -0.090748489 0.095876917
0.069733202 -0.090748489 0.095876917
0.070369571 -0.090891674 0.096016586
0.071053669 -0.090891674 0.096016586
0.071713202 -0.090963259 0.096086398
0.072372258 -0.091034859 0.096156254
0.073030859 -0.09110643 0.096226066
0.073688991 -0.091178015 0.096295893
0.074321151 -0.091321185 0.096435577
0.069214001 -0.090732604 0.094902858
0.069900192 -0.090732604 0.094902858
0.070562303 -0.090804011 0.094972864
0.071223944 -0.090875447 0.095042869
0.071860559 -0.091018274 0.095182836
0.072521023 -0.091089696 0.095252857
0.073181026 -0.091161117 0.095322847
0.073840559 -0.091232553 0.095392853
0.074525118 -0.091232553 0.095392853
0.068738289 -0.0905765 0.093786165
0.069402978 -0.090647757 0.09385632
0.07006719 -0.090719014 0.093926504
0.070755027 -0.090719014 0.093926504
0.071369894 -0.090932786 0.094136983
0.072032474 -0.091004029 0.094207138
0.072694577 -0.091075301 0.094277307
0.073381245 -0.091075301 0.094277307
0.074017391 -0.091217816 0.094417647
0.074678101 -0.091289058 0.094487816
0.068235219 -0.090494469 0.09273681
0.068878621 -0.090636656 0.092877477
0.069568336 -0.090636656 0.092877477
0.070234194 -0.090707749 0.092947781
0.070899576 -0.090778843 0.093018144
0.071564503 -0.090849921 0.093088448
0.072155267 -0.091134295 0.093369782
0.072843343 -0.091134295 0.093369782
0.073531412 -0.091134295 0.093369782
0.0741437 -0.091347545 0.093580768
0.06837415 -0.090556949 0.091825798
0.069065735 -0.090556949 0.091825798
0.06975732 -0.090556949 0.091825798
0.070425048 -0.090627879 0.09189631
0.071116395 -0.090627879 0.09189631
0.071734779 -0.090840638 0.092107788
0.07240086 -0.090911582 0.092178285
0.07306648 -0.090982497 0.092248783
0.073706605 -0.091124356 0.092389777
0.068489917 -0.090692177 0.090983465
0.069206059 -0.090621427 0.090912819
0.069899052 -0.090621427 0.090912819
0.070568189 -0.090692177 0.090983465
0.071285032 -0.090621427 0.090912819
0.071929373 -0.090762943 0.091054142
0.07259734 -0.090833694 0.091124788
0.073289625 -0.090833694 0.091124788
0.073931858 -0.09097521 0.091266125
0.074598417 -0.091045976 0.091336772
0.068605691 -0.090829059 0.090139478
0.069346391 -0.090687856 0.089997828
0.070040792 -0.090687856 0.089997828
0.070735186 -0.090687856 0.089997828
0.07142958 -0.090687856 0.089997828
0.07207533 -0.090829059 0.090139478
0.072744697 -0.090899646 0.090210304
0.073463179 -0.090829059 0.090139478
0.074107051 -0.090970248 0.090281144
0.068698302 -0.091038018 0.089364842
0.069463328 -0.090826735 0.089151859
0.070158899 -0.090826735 0.089151859
0.070854463 -0.090826735 0.089151859
0.071550034 -0.090826735 0.089151859
0.072196953 -0.090967596 0.089293852
0.072941169 -0.090826735 0.089151859
0.073587142 -0.090967596 0.089293852
0.074282244 -0.090967596 0.089293852
0.069486715 -0.091248333 0.088588864
0.070324257 -0.090826735 0.088161916
0.07109303 -0.090615958 0.087948456
0.071766853 -0.090686202 0.088019595
0.072464526 -0.090686202 0.088019595
0.073162198 -0.090686202 0.088019595
0.073810287 -0.090826735 0.088161916
0.069300309 -0.090198174 0.086527735
0.069884323 -0.090548664 0.08688435
0.070702218 -0.090198174 0.086527735
0.071379319 -0.090268269 0.086599052
0.072007753 -0.090478584 0.086813033
0.072683454 -0.090548664 0.08688435
0.073358677 -0.090618744 0.086955667
0.074058227 -0.090618744 0.086955667
0.069647625 -0.089644849 0.084959731
0.070258535 -0.089924589 0.085245684
0.070962064 -0.089924589 0.085245684
0.07159403 -0.090134367 0.085460156
0.072224572 -0.090344176 0.085674644
0.072902381 -0.090414107 0.085746124
0.073579714 -0.090484008 0.085817605
0.069925472 -0.089305788 0.083601758
0.070539191 -0.089584857 0.083888367
0.071198292 -0.089724377 0.084031671
0.07180874 -0.090003446 0.08431828
0.072465487 -0.09014298 0.0844616
0.073096983 -0.090352282 0.084676549
0.073776186 -0.090422049 0.084748223
0.070843242 -0.089179501 0.082455248
0.071529008 -0.089249104 0.082527041
0.072190441 -0.089388296 0.082670689
0.072850943 -0.089527503 0.082814336
0.073559158 -0.089527503 0.082814336
0.074218251 -0.089666709 0.082957983
0 0 0 1 0 0 0 1 0 0 0 1 0 0 0 0 0 579 1 0 0
