ply
format ascii 1.0
comment PCL generated
element vertex 516
property float x
property float y
property float z
element camera 1
property float view_px
property float view_py
property float view_pz
property float x_axisx
property float x_axisy
property float x_axisz
property float y_axisx
property float y_axisy
property float y_axisz
property float z_axisx
property float z_axisy
property float z_axisz
property float focal
property float scalex
property float scaley
property float centerx
property float centery
property int viewportx
property int viewporty
property float k1
property float k2
end_header
0.069060132 -0.088745475 0.13167964
0.069714688 -0.088666752 0.13161692
0.070317306 -0.088745475 0.13167964
0.070945889 -0.088745475 0.13167964
0.071547814 -0.088824168 0.13174236
0.067752436 -0.089347035 0.13136092
0.068406053 -0.089268491 0.13129804
0.069034405 -0.089268491 0.13129804
0.069688715 -0.089189947 0.13123517
0.070291109 -0.089268491 0.13129804
0.070919462 -0.089268491 0.13129804
0.071547814 -0.089268491 0.13129804
0.072149262 -0.089347035 0.13136092
0.072750241 -0.089425579 0.1314238
0.067074262 -0.089947909 0.13104284
0.067727178 -0.089869559 0.13097982
0.068380557 -0.089791179 0.13091677
0.069034405 -0.089712799 0.13085373
0.069662757 -0.089712799 0.13085373
0.070291109 -0.089712799 0.13085373
0.070919462 -0.089712799 0.13085373
0.071521141 -0.089791179 0.13091677
0.072122365 -0.089869559 0.13097982
0.072695971 -0.090026304 0.1311059
0.073350765 -0.089947909 0.13104284
0.066397026 -0.090548158 0.13072546
0.067049235 -0.090469956 0.13066225
0.067701921 -0.090391725 0.13059902
0.068355061 -0.090313539 0.13053584
0.068982944 -0.090313539 0.13053584
0.069610827 -0.090313539 0.13053584
0.070238717 -0.090313539 0.13053584
0.070893019 -0.090235338 0.13047263
0.071494475 -0.090313539 0.13053584
0.072095469 -0.090391725 0.13059902
0.072695971 -0.090469956 0.13066225
0.073296025 -0.090548158 0.13072546
0.073895596 -0.090626389 0.13078867
0.065745287 -0.091069698 0.13034534
0.066397026 -0.090991646 0.13028197
0.067024209 -0.090991646 0.13028197
0.067651391 -0.090991646 0.13028197
0.068329573 -0.090835541 0.13015521
0.068982944 -0.090757519 0.13009186
0.069610827 -0.090757519 0.13009186
0.070212521 -0.090835541 0.13015521
0.070866592 -0.090757519 0.13009186
0.071467817 -0.090835541 0.13015521
0.072068557 -0.090913609 0.1302186
0.072668836 -0.090991646 0.13028197
0.073268652 -0.091069698 0.13034534
0.073867999 -0.091147751 0.13040872
0.074494705 -0.091147751 0.13040872
0.06572073 -0.091590896 0.12996557
0.066372231 -0.091513023 0.12990203
0.066974156 -0.091590896 0.12996557
0.067626126 -0.091513023 0.12990203
0.068278573 -0.091435134 0.12983848
0.068931475 -0.091357261 0.12977494
0.069558896 -0.091357261 0.12977494
0.070212521 -0.091279358 0.12971139
0.070840165 -0.091279358 0.12971139
0.071441144 -0.091357261 0.12977494
0.072068557 -0.091357261 0.12977494
0.072668836 -0.091435134 0.12983848
0.073241286 -0.091590896 0.12996557
0.073867999 -0.091590896 0.12996557
0.074439026 -0.091746658 0.13009265
0.065696165 -0.092111781 0.12958613
0.066347443 -0.092034042 0.12952241
0.066974156 -0.092034042 0.12952241
0.067626126 -0.091956347 0.12945871
0.068227582 -0.092034042 0.12952241
0.068905748 -0.091878608 0.12939501
0.069532938 -0.091878608 0.12939501
0.070186317 -0.091800898 0.12933129
0.070813723 -0.091800898 0.12933129
0.071414478 -0.091878608 0.12939501
0.072041661 -0.091878608 0.12939501
0.072641701 -0.091956347 0.12945871
0.073268652 -0.091956347 0.12945871
0.073867999 -0.092034042 0.12952241
0.074439026 -0.092189491 0.12964983
0.075065278 -0.092189491 0.12964983
0.065696165 -0.092554763 0.12914315
0.066347443 -0.092477202 0.12907927
0.066974156 -0.092477202 0.12907927
0.067600869 -0.092477202 0.12907927
0.068253078 -0.092399657 0.1290154
0.068905748 -0.092322096 0.12895152
0.069558896 -0.092244551 0.12888765
0.070186317 -0.092244551 0.12888765
0.070813723 -0.092244551 0.12888765
0.071441144 -0.092244551 0.12888765
0.072041661 -0.092322096 0.12895152
0.072641701 -0.092399657 0.1290154
0.073241286 -0.092477202 0.12907927
0.073840387 -0.092554763 0.12914315
0.074466862 -0.092554763 0.12914315
0.075065278 -0.092632309 0.12920702
0.066322647 -0.09299776 0.12870017
0.066974156 -0.092920363 0.12863611
0.067626126 -0.092842981 0.12857208
0.068253078 -0.092842981 0.12857208
0.068931475 -0.092688203 0.128444
0.069584869 -0.092610806 0.12837996
0.070186317 -0.092688203 0.128444
0.070813723 -0.092688203 0.128444
0.071441144 -0.092688203 0.128444
0.072068557 -0.092688203 0.128444
0.072641701 -0.092842981 0.12857208
0.073241286 -0.092920363 0.12863611
0.073867999 -0.092920363 0.12863611
0.074466862 -0.09299776 0.12870017
0.066974156 -0.093363509 0.12819296
0.067626126 -0.093286291 0.12812877
0.068278573 -0.093209058 0.12806454
0.068905748 -0.093209058 0.12806454
0.069558896 -0.093131855 0.12800035
0.070186317 -0.093131855 0.12800035
0.070840165 -0.093054622 0.12793614
0.071467817 -0.093054622 0.12793614
0.072068557 -0.093131855 0.12800035
0.072641701 -0.093286291 0.12812877
0.073268652 -0.093286291 0.12812877
0.073867999 -0.093363509 0.12819296
0.074466862 -0.093440741 0.12825717
0.066974156 -0.093806654 0.1277498
0.067626126 -0.093729615 0.12768544
0.068278573 -0.093652546 0.12762107
0.068905748 -0.093652546 0.12762107
0.069558896 -0.093575507 0.1275567
0.070212521 -0.093498439 0.12749232
0.070840165 -0.093498439 0.12749232
0.071467817 -0.093498439 0.12749232
0.072068557 -0.093575507 0.1275567
0.072641701 -0.093729615 0.12768544
0.073268652 -0.093729615 0.12768544
0.073867999 -0.093806654 0.1277498
0.067727178 -0.093865395 0.126984
0.068482541 -0.093480945 0.12666132
0.069265977 -0.09301962 0.12627411
0.069896437 -0.09301962 0.12627411
0.070474498 -0.0931734 0.12640318
0.071104489 -0.0931734 0.12640318
0.071707815 -0.093250275 0.12646769
0.072229974 -0.093557835 0.12672584
0.072804518 -0.093711615 0.12685493
0.073350765 -0.093942255 0.12704851
0.069471814 -0.092851654 0.12531072
0.070130117 -0.092774928 0.125246
0.070762686 -0.092774928 0.125246
0.071342386 -0.09292838 0.1253754
0.071867816 -0.093235269 0.12563421
0.072445177 -0.093388706 0.12576361
0.072967328 -0.093695566 0.1260224
0.07181064 -0.091067806 0.12129626
0.072531864 -0.090839148 0.12110068
0.073227838 -0.090686694 0.12097028
0.070706874 -0.090989307 0.12038481
0.071376413 -0.090913266 0.12031946
0.072020225 -0.090913266 0.12031946
0.072690465 -0.090837181 0.12025408
0.073387839 -0.090685084 0.12012337
0.074059255 -0.090609014 0.120058
0.07019078 -0.09106493 0.1196021
0.070835523 -0.09106493 0.1196021
0.071480274 -0.09106493 0.1196021
0.072125018 -0.09106493 0.1196021
0.072796188 -0.090989038 0.11953658
0.07344117 -0.090989038 0.11953658
0.07413996 -0.09083724 0.11940552
0.069722869 -0.090990737 0.11868635
0.070369251 -0.090990737 0.11868635
0.071015634 -0.090990737 0.11868635
0.071662024 -0.090990737 0.11868635
0.072334602 -0.090915009 0.11862066
0.072954789 -0.090990737 0.11868635
0.073601179 -0.090990737 0.11868635
0.074274465 -0.090915009 0.11862066
0.069899701 -0.090918869 0.11776827
0.070573226 -0.09084329 0.11770241
0.071195744 -0.090918869 0.11776827
0.071843773 -0.090918869 0.11776827
0.072465606 -0.090994418 0.11783411
0.073113389 -0.090994418 0.11783411
0.073707849 -0.091145545 0.11796583
0.074408978 -0.090994418 0.11783411
0.070101798 -0.09077391 0.11678185
0.070700705 -0.090924695 0.11691388
0.071324393 -0.09100011 0.11697993
0.071947634 -0.091075495 0.11704594
0.072570391 -0.091150895 0.11711198
0.073219113 -0.091150895 0.11711198
0.073841184 -0.091226295 0.11717799
0.074516572 -0.091150895 0.11711198
0.069677144 -0.090556368 0.11572659
0.07027863 -0.09070684 0.11585897
0.07085368 -0.090932548 0.11605754
0.071504503 -0.090932548 0.11605754
0.072103426 -0.09108299 0.11618991
0.072727591 -0.091158226 0.11625612
0.073351286 -0.091233462 0.11632229
0.074001186 -0.091233462 0.11632229
0.074651085 -0.091233462 0.11632229
0.075246707 -0.091383904 0.11645468
0.069248281 -0.090341821 0.11466834
0.069827311 -0.090567023 0.11486742
0.070430197 -0.090717167 0.11500014
0.071032159 -0.090867266 0.11513284
0.071633168 -0.09101741 0.11526555
0.072233245 -0.091167539 0.11539826
0.072832383 -0.091317669 0.11553097
0.07345701 -0.091392756 0.11559734
0.074081182 -0.091467813 0.11566368
0.07473179 -0.091467813 0.11566368
0.069421835 -0.090280041 0.11374018
0.069977477 -0.090579659 0.11400625
0.070581771 -0.090729445 0.1141393
0.071185127 -0.090879261 0.11427234
0.071736082 -0.091178864 0.11453845
0.072337106 -0.091328636 0.11467147
0.072937183 -0.091478452 0.11480451
0.073589183 -0.091478452 0.11480451
0.074161187 -0.091703162 0.11500409
0.074812494 -0.091703162 0.11500409
0.068669811 -0.089024842 0.11174268
0.069570594 -0.090295345 0.11287637
0.07015267 -0.090519547 0.11307642
0.070758604 -0.090669006 0.1132098
0.071312606 -0.090967953 0.11347656
0.071890466 -0.091192141 0.11367661
0.072440952 -0.091491088 0.11394337
0.073068172 -0.091565818 0.11401004
0.073694907 -0.091640562 0.11407673
0.074321188 -0.091715276 0.11414342
0.068791434 -0.089119509 0.11094093
0.069208153 -0.089865178 0.11160944
0.069694564 -0.090387166 0.1120774
0.070302837 -0.090536296 0.11221112
0.070859656 -0.090834588 0.11247854
0.071440093 -0.091058284 0.11267908
0.072044849 -0.09120743 0.11281279
0.072622709 -0.091431141 0.11301337
0.073225372 -0.091580257 0.11314705
0.073853508 -0.091654837 0.11321391
0.074481197 -0.091729403 0.11328076
0.068888739 -0.089290217 0.11020452
0.069330946 -0.089959845 0.11080769
0.069868118 -0.090331852 0.11114277
0.070402943 -0.09070389 0.11147788
0.07101123 -0.090852663 0.1116119
0.071618564 -0.091001481 0.11174594
0.072147764 -0.091373518 0.11208105
0.072752535 -0.091522306 0.11221506
0.073382556 -0.091596708 0.1122821
0.074012108 -0.091671109 0.11234911
0.068864405 -0.089833438 0.10980272
0.069429189 -0.090130374 0.11007145
0.070016876 -0.090353101 0.11027302
0.070578143 -0.090650052 0.11054173
0.07116279 -0.090872765 0.1107433
0.071720548 -0.09116973 0.11101204
0.072327882 -0.091318175 0.11114639
0.072934285 -0.091466665 0.11128075
0.073513545 -0.091689393 0.11148232
0.074144274 -0.091763616 0.11154951
0.067896232 -0.089191183 0.10832366
0.068442307 -0.089561537 0.1086604
0.069034688 -0.089783743 0.10886246
0.069576539 -0.090154126 0.10919921
0.070165642 -0.090376332 0.10940126
0.070728302 -0.090672627 0.10967065
0.071314365 -0.090894833 0.1098727
0.071873523 -0.091191128 0.11014211
0.072507992 -0.091265187 0.11020944
0.073064104 -0.091561481 0.11047885
0.073696941 -0.09163557 0.1105462
0.067991659 -0.089366868 0.10758229
0.068562753 -0.089662492 0.10785235
0.069156311 -0.089884207 0.10805489
0.069723897 -0.090179831 0.10832496
0.070289604 -0.09047547 0.10859503
0.070903495 -0.090623289 0.10873005
0.071516462 -0.090771094 0.10886508
0.072102986 -0.090992808 0.10906763
0.072688103 -0.091214508 0.10927017
0.073297784 -0.091362327 0.1094052
0.068039373 -0.089691341 0.10697497
0.069253616 -0.09006004 0.10731336
0.069895811 -0.090133786 0.10738105
0.07043837 -0.090502486 0.10771945
0.071078695 -0.090576246 0.10778713
0.071693301 -0.090723708 0.10792249
0.072281457 -0.090944946 0.10812555
0.072919682 -0.091018677 0.1081932
0.073557429 -0.091092438 0.1082609
0.068158656 -0.089795783 0.10616343
0.068803668 -0.089869335 0.10623127
0.069399558 -0.090090081 0.10643482
0.070043169 -0.090163648 0.10650267
0.070611924 -0.090457946 0.10677405
0.071253896 -0.090531513 0.10684189
0.071895391 -0.090605095 0.10690975
0.072510928 -0.090752259 0.10704544
0.073099792 -0.09097296 0.10724898
0.067678541 -0.08968161 0.1051462
0.068325654 -0.089755028 0.10521422
0.068875939 -0.090122074 0.10555428
0.069545515 -0.090122074 0.10555428
0.070190519 -0.090195507 0.10562231
0.070810273 -0.090342298 0.10575831
0.071429089 -0.090489119 0.10589434
0.072046965 -0.09063594 0.10603037
0.072663903 -0.090782762 0.10616638
0.073331363 -0.090782762 0.10616638
0.073946901 -0.090929583 0.10630241
0.074613899 -0.090929583 0.10630241
0.067773022 -0.089863107 0.10439906
0.068421081 -0.089936346 0.10446723
0.069020487 -0.090156063 0.10467175
0.069667138 -0.090229318 0.10473993
0.070337877 -0.090229318 0.10473993
0.070983827 -0.090302557 0.10480811
0.071629301 -0.090375811 0.10487629
0.072223797 -0.090595543 0.10508083
0.07286787 -0.090668797 0.10514902
0.073511474 -0.090742037 0.10521717
0.067891143 -0.089972809 0.1035822
0.068516508 -0.09011896 0.10371891
0.069140941 -0.090265125 0.10385559
0.069813095 -0.090265125 0.10385559
0.070485234 -0.090265125 0.10385559
0.071132585 -0.090338215 0.10392395
0.071779475 -0.090411291 0.10399228
0.07240063 -0.090557456 0.10412897
0.073071845 -0.090557456 0.10412897
0.073691584 -0.090703592 0.10426566
0.07436233 -0.090703592 0.10426566
0.068635792 -0.090230018 0.10290076
0.069309577 -0.090230018 0.10290076
0.069983363 -0.090230018 0.10290076
0.070657149 -0.090230018 0.10290076
0.071306139 -0.090302944 0.10296927
0.071954668 -0.090375856 0.10303777
0.072627984 -0.090375856 0.10303777
0.073275812 -0.090448752 0.10310628
0.07394889 -0.090448752 0.10310628
0.068150982 -0.090124488 0.10187493
0.068778932 -0.090269968 0.10201228
0.069454126 -0.090269968 0.10201228
0.07012932 -0.090269968 0.10201228
0.070779949 -0.09034273 0.10208096
0.071454905 -0.09034273 0.10208096
0.072104834 -0.090415463 0.10214961
0.072754294 -0.090488225 0.1022183
0.073428787 -0.090488225 0.1022183
0.074103266 -0.090488225 0.1022183
0.068292722 -0.090166762 0.10098413
0.068922073 -0.09031193 0.10112181
0.069598667 -0.09031193 0.10112181
0.070250943 -0.090384498 0.10119063
0.070927307 -0.090384498 0.10119063
0.071603663 -0.090384498 0.10119063
0.072254993 -0.090457097 0.10125948
0.072905868 -0.090529665 0.10132831
0.073581763 -0.090529665 0.10132831
0.074257657 -0.090529665 0.10132831
0.0690175 -0.090500683 0.10036735
0.069719121 -0.090428278 0.10029835
0.070372567 -0.090500683 0.10036735
0.0710501 -0.090500683 0.10036735
0.071702838 -0.090573102 0.10043637
0.072380133 -0.090573102 0.10043637
0.073032178 -0.090645522 0.10050537
0.073709242 -0.090645522 0.10050537
0.074386306 -0.090645522 0.10050537
0.067802764 -0.090546265 0.099473238
0.068481706 -0.090546265 0.099473238
0.069136783 -0.090618521 0.099542424
0.069839582 -0.090546265 0.099473238
0.07049419 -0.090618521 0.099542424
0.071148336 -0.090690777 0.099611565
0.071826808 -0.090690777 0.099611565
0.07250528 -0.090690777 0.099611565
0.073183753 -0.090690777 0.099611565
0.073862225 -0.090690777 0.099611565
0.07454069 -0.090690777 0.099611565
0.067896314 -0.090738028 0.098715812
0.068552569 -0.09081009 0.098785147
0.06925606 -0.090738028 0.098715812
0.069911852 -0.09081009 0.098785147
0.070615813 -0.090738028 0.098715812
0.071271136 -0.09081009 0.098785147
0.071950771 -0.09081009 0.098785147
0.07258036 -0.090954274 0.098923817
0.073259532 -0.090954274 0.098923817
0.073938712 -0.090954274 0.098923817
0.074617878 -0.090954274 0.098923817
0.067989863 -0.090931088 0.09795706
0.068670683 -0.090931088 0.09795706
0.069351494 -0.090931088 0.09795706
0.070032306 -0.090931088 0.09795706
0.070713118 -0.090931088 0.09795706
0.071393929 -0.090931088 0.09795706
0.07202515 -0.091074929 0.098096073
0.072755553 -0.090931088 0.09795706
0.073436365 -0.090931088 0.09795706
0.074066184 -0.091074929 0.098096073
0.074797988 -0.090931088 0.09795706
0.068812415 -0.090981975 0.097057641
0.069518492 -0.090910226 0.096987978
0.070200935 -0.090910226 0.096987978
0.070883393 -0.090910226 0.096987978
0.071541287 -0.090981975 0.097057641
0.072198704 -0.091053739 0.097127318
0.072905719 -0.090981975 0.097057641
0.073562674 -0.091053739 0.097127318
0.074270159 -0.090981975 0.097057641
0.068293914 -0.090963259 0.096086398
0.068954147 -0.091034859 0.096156254
0.069637768 -0.091034859 0.096156254
0.070345484 -0.090963259 0.096086398
0.071005017 -0.091034859 0.096156254
0.071688637 -0.091034859 0.096156254
0.07234747 -0.09110643 0.096226066
0.073030859 -0.09110643 0.096226066
0.073714249 -0.09110643 0.096226066
0.074397638 -0.09110643 0.096226066
0.068387471 -0.091161117 0.095322847
0.069095887 -0.091089696 0.095252857
0.069757059 -0.091161117 0.095322847
0.070465937 -0.091089696 0.095252857
0.071126647 -0.091161117 0.095322847
0.07178688 -0.091232553 0.095392853
0.072471432 -0.091232553 0.095392853
0.073181026 -0.091161117 0.095322847
0.073840559 -0.091232553 0.095392853
0.06857457 -0.091075301 0.094277307
0.069261245 -0.091075301 0.094277307
0.069947906 -0.091075301 0.094277307
0.070586391 -0.091217816 0.094417647
0.071272597 -0.091217816 0.094417647
0.071958795 -0.091217816 0.094417647
0.072620198 -0.091289058 0.094487816
0.073306166 -0.091289058 0.094487816
0.073992133 -0.091289058 0.094487816
0.068049982 -0.091063201 0.093299463
0.068761684 -0.090992108 0.093229115
0.069450229 -0.090992108 0.093229115
0.070138767 -0.090992108 0.093229115
0.07080321 -0.091063201 0.093299463
0.071467198 -0.091134295 0.093369782
0.07213071 -0.091205388 0.09344013
0.07281854 -0.091205388 0.09344013
0.073506378 -0.091205388 0.09344013
0.074194223 -0.091205388 0.09344013
0.068258375 -0.090911582 0.092178285
0.068948783 -0.090911582 0.092178285
0.06968645 -0.090769738 0.092037305
0.070329614 -0.090911582 0.092178285
0.071020029 -0.090911582 0.092178285
0.071637474 -0.091124356 0.092389777
0.072302625 -0.091195285 0.092460245
0.073016897 -0.091124356 0.092389777
0.073706605 -0.091124356 0.092389777
0.074371062 -0.091195285 0.092460245
0.069159284 -0.090762943 0.091054142
0.069875434 -0.090692177 0.090983465
0.070544325 -0.090762943 0.091054142
0.071236849 -0.090762943 0.091054142
0.071905054 -0.090833694 0.091124788
0.072548218 -0.09097521 0.091266125
0.073289625 -0.090833694 0.091124788
0.073906831 -0.091045976 0.091336772
0.074598417 -0.091045976 0.091336772
0.069299616 -0.090829059 0.090139478
0.070040792 -0.090687856 0.089997828
0.070687473 -0.090829059 0.090139478
0.071381398 -0.090829059 0.090139478
0.072051004 -0.090899646 0.090210304
0.072744697 -0.090899646 0.090210304
0.073438391 -0.090899646 0.090210304
0.074132077 -0.090899646 0.090210304
0.074749984 -0.091111436 0.090422809
0.069463328 -0.090826735 0.089151859
0.070158899 -0.090826735 0.089151859
0.070854463 -0.090826735 0.089151859
0.071501851 -0.090967596 0.089293852
0.072196953 -0.090967596 0.089293852
0.072892047 -0.090967596 0.089293852
0.073587142 -0.090967596 0.089293852
0.074282244 -0.090967596 0.089293852
0.070395119 -0.090615958 0.087948456
0.07109303 -0.090615958 0.087948456
0.071694583 -0.090896994 0.088233069
0.072415873 -0.090826735 0.088161916
0.073113084 -0.090826735 0.088161916
0.073810287 -0.090826735 0.088161916
0.070702218 -0.090198174 0.086527735
0.071379319 -0.090268269 0.086599052
0.071983665 -0.090548664 0.08688435
0.072659135 -0.090618744 0.086955667
0.073383234 -0.090548664 0.08688435
0.073983841 -0.090829059 0.087169647
0.07098569 -0.089854643 0.085174188
0.07159403 -0.090134367 0.085460156
0.072200485 -0.090414107 0.085746124
0.072878055 -0.090484008 0.085817605
0.073530592 -0.090623885 0.085960582
0.071151048 -0.089863911 0.084174976
0.07176102 -0.09014298 0.0844616
0.072393216 -0.090352282 0.084676549
0.073024005 -0.090561569 0.084891543
0.073702507 -0.090631336 0.084963188
0.073510505 -0.089666709 0.082957983
0 0 0 1 0 0 0 1 0 0 0 1 0 0 0 0 0 516 1 0 0
