ply
format ascii 1.0
comment PCL generated
element vertex 559
property float x
property float y
property float z
element camera 1
property float view_px
property float view_py
property float view_pz
property float x_axisx
property float x_axisy
property float x_axisz
property float y_axisx
property float y_axisy
property float y_axisz
property float z_axisx
property float z_axisy
property float z_axisz
property float focal
property float scalex
property float scaley
property float centerx
property float centery
property int viewportx
property int viewporty
property float k1
property float k2
end_header
0.069662757 -0.088824168 0.13174236
0.070291109 -0.088824168 0.13174236
0.070919462 -0.088824168 0.13174236
0.068355061 -0.089425579 0.1314238
0.068982944 -0.089425579 0.1314238
0.069610827 -0.089425579 0.1314238
0.070264906 -0.089347035 0.13136092
0.070919462 -0.089268491 0.13129804
0.071547814 -0.089268491 0.13129804
0.067701921 -0.089947909 0.13104284
0.068355061 -0.089869559 0.13097982
0.068982944 -0.089869559 0.13097982
0.069636784 -0.089791179 0.13091677
0.070264906 -0.089791179 0.13091677
0.070919462 -0.089712799 0.13085373
0.071521141 -0.089791179 0.13091677
0.072149262 -0.089791179 0.13091677
0.072777376 -0.089791179 0.13091677
0.073405497 -0.089791179 0.13091677
0.067049235 -0.090469956 0.13066225
0.067676648 -0.090469956 0.13066225
0.068329573 -0.090391725 0.13059902
0.068982944 -0.090313539 0.13053584
0.069610827 -0.090313539 0.13053584
0.070264906 -0.090235338 0.13047263
0.070893019 -0.090235338 0.13047263
0.071521141 -0.090235338 0.13047263
0.072149262 -0.090235338 0.13047263
0.072750241 -0.090313539 0.13053584
0.073350765 -0.090391725 0.13059902
0.074006014 -0.090313539 0.13053584
0.066372231 -0.091069698 0.13034534
0.067024209 -0.090991646 0.13028197
0.067676648 -0.090913609 0.1302186
0.068304069 -0.090913609 0.1302186
0.068957217 -0.090835541 0.13015521
0.069584869 -0.090835541 0.13015521
0.070238717 -0.090757519 0.13009186
0.070866592 -0.090757519 0.13009186
0.071494475 -0.090757519 0.13009186
0.072122365 -0.090757519 0.13009186
0.072750241 -0.090757519 0.13009186
0.073350765 -0.090835541 0.13015521
0.073950805 -0.090913609 0.1302186
0.066347443 -0.091590896 0.12996557
0.066999175 -0.091513023 0.12990203
0.067651391 -0.091435134 0.12983848
0.068278573 -0.091435134 0.12983848
0.068931475 -0.091357261 0.12977494
0.069584869 -0.091279358 0.12971139
0.070212521 -0.091279358 0.12971139
0.070840165 -0.091279358 0.12971139
0.071494475 -0.091201499 0.12964788
0.072122365 -0.091201499 0.12964788
0.072723113 -0.091279358 0.12971139
0.073350765 -0.091279358 0.12971139
0.074006014 -0.091201499 0.12964788
0.074606061 -0.091279358 0.12971139
0.065696165 -0.092111781 0.12958613
0.066322647 -0.092111781 0.12958613
0.066999175 -0.091956347 0.12945871
0.067651391 -0.091878608 0.12939501
0.068304069 -0.091800898 0.12933129
0.068931475 -0.091800898 0.12933129
0.069584869 -0.091723174 0.12926759
0.070238717 -0.091645479 0.1292039
0.070866592 -0.091645479 0.1292039
0.071494475 -0.091645479 0.1292039
0.072122365 -0.091645479 0.1292039
0.072750241 -0.091645479 0.1292039
0.073350765 -0.091723174 0.12926759
0.073978417 -0.091723174 0.12926759
0.074606061 -0.091723174 0.12926759
0.065696165 -0.092554763 0.12914315
0.066347443 -0.092477202 0.12907927
0.066999175 -0.092399657 0.1290154
0.067651391 -0.092322096 0.12895152
0.068304069 -0.092244551 0.12888765
0.068931475 -0.092244551 0.12888765
0.069584869 -0.09216699 0.12882377
0.070238717 -0.092089459 0.12875992
0.070893019 -0.092011914 0.12869605
0.071494475 -0.092089459 0.12875992
0.072149262 -0.092011914 0.12869605
0.072750241 -0.092089459 0.12875992
0.073378131 -0.092089459 0.12875992
0.074006014 -0.092089459 0.12875992
0.074606061 -0.09216699 0.12882377
0.075261779 -0.092089459 0.12875992
0.066347443 -0.092920363 0.12863611
0.066999175 -0.092842981 0.12857208
0.067651391 -0.092765585 0.12850803
0.068304069 -0.092688203 0.128444
0.068957217 -0.092610806 0.12837996
0.069610827 -0.092533439 0.12831593
0.070264906 -0.092456073 0.1282519
0.070919462 -0.092378676 0.12818785
0.071547814 -0.092378676 0.12818785
0.072176166 -0.092378676 0.12818785
0.072777376 -0.092456073 0.1282519
0.073405497 -0.092456073 0.1282519
0.074033618 -0.092456073 0.1282519
0.074633896 -0.092533439 0.12831593
0.066397026 -0.093209058 0.12806454
0.067049235 -0.093131855 0.12800035
0.067701921 -0.093054622 0.12793614
0.068329573 -0.093054622 0.12793614
0.069008671 -0.092900217 0.12780775
0.069662757 -0.092822984 0.12774354
0.070317306 -0.092745766 0.12767935
0.070945889 -0.092745766 0.12767935
0.071547814 -0.092822984 0.12774354
0.072203062 -0.092745766 0.12767935
0.072777376 -0.092900217 0.12780775
0.07343287 -0.092822984 0.12774354
0.074061222 -0.092822984 0.12774354
0.074689567 -0.092822984 0.12774354
0.067074262 -0.093498439 0.12749232
0.067727178 -0.0934214 0.12742797
0.068406053 -0.093267292 0.12729923
0.069034405 -0.093267292 0.12729923
0.069688715 -0.093190253 0.12723486
0.070369706 -0.09303613 0.12710613
0.070972323 -0.093113184 0.12717049
0.071681149 -0.092882037 0.12697738
0.072256871 -0.09303613 0.12710613
0.072858788 -0.093113184 0.12717049
0.07348761 -0.093113184 0.12717049
0.074061222 -0.093267292 0.12729923
0.067752436 -0.093788505 0.12691946
0.068508044 -0.093404055 0.12659676
0.069137327 -0.093404055 0.12659676
0.069818549 -0.093250275 0.12646769
0.070448309 -0.093250275 0.12646769
0.071157351 -0.09301962 0.12627411
0.071707815 -0.093250275 0.12646769
0.072310671 -0.09332718 0.12653224
0.072913058 -0.093404055 0.12659676
0.07348761 -0.093557835 0.12672584
0.074116431 -0.093557835 0.12672584
0.067954533 -0.09361887 0.12595771
0.068661012 -0.093388706 0.12576361
0.069291703 -0.093388706 0.12576361
0.069974326 -0.093235269 0.12563421
0.070631698 -0.093158528 0.12556949
0.071315952 -0.093005091 0.12544011
0.071921147 -0.093081817 0.12550482
0.072525889 -0.093158528 0.12556949
0.073048733 -0.093465418 0.12582831
0.073624454 -0.09361887 0.12595771
0.068839483 -0.093298778 0.12486359
0.069523275 -0.093145669 0.12473385
0.070182048 -0.093069106 0.12466897
0.070841283 -0.092992559 0.12460414
0.071527414 -0.09283945 0.12447439
0.072161153 -0.09283945 0.12447439
0.072606586 -0.09337534 0.12492844
0.073211551 -0.093451887 0.12499331
0.070063613 -0.091988921 0.12292074
0.071443848 -0.091683373 0.12266064
0.072029635 -0.091836169 0.12279068
0.072534494 -0.092218101 0.12311584
0.070784062 -0.09076114 0.12018874
0.071402378 -0.090837181 0.12025408
0.072125018 -0.090609014 0.120058
0.072796188 -0.090532973 0.11999264
0.07354784 -0.090228736 0.1197312
0.069697611 -0.090609565 0.11920892
0.070318259 -0.090685472 0.11927447
0.070989907 -0.090609565 0.11920892
0.071662024 -0.090533674 0.11914341
0.072308414 -0.090533674 0.11914341
0.072981216 -0.090457782 0.11907789
0.07365451 -0.090381876 0.11901236
0.069176592 -0.090687811 0.11842357
0.069798648 -0.090763554 0.11848927
0.070445739 -0.090763554 0.11848927
0.071092822 -0.090763554 0.11848927
0.071713954 -0.090839282 0.11855495
0.072387002 -0.090763554 0.11848927
0.073139817 -0.090460643 0.1182265
0.073787846 -0.090460643 0.1182265
0.074462779 -0.090384901 0.1181608
0.069351785 -0.090616614 0.11750482
0.06997548 -0.090692177 0.1175707
0.07062421 -0.090692177 0.1175707
0.071247205 -0.090767741 0.11763655
0.071895704 -0.090767741 0.11763655
0.072518006 -0.09084329 0.11770241
0.073192686 -0.090767741 0.11763655
0.073867843 -0.090692177 0.1175707
0.074543484 -0.090616614 0.11750482
0.068950757 -0.090321541 0.11638571
0.069526978 -0.090547711 0.11658378
0.07015232 -0.090623111 0.11664979
0.070777193 -0.09069851 0.11671583
0.071401589 -0.09077391 0.11678185
0.072051495 -0.09077391 0.11678185
0.072648995 -0.090924695 0.11691388
0.073298417 -0.090924695 0.11691388
0.073947854 -0.090924695 0.11691388
0.074597284 -0.090924695 0.11691388
0.069049932 -0.090481147 0.1156604
0.069677144 -0.090556368 0.11572659
0.070253365 -0.090782076 0.11592516
0.07085368 -0.090932548 0.11605754
0.071504503 -0.090932548 0.11605754
0.072155342 -0.090932548 0.11605754
0.072779991 -0.091007754 0.11612374
0.073430583 -0.091007754 0.11612374
0.074081182 -0.091007754 0.11612374
0.074704893 -0.09108299 0.11618991
0.069173895 -0.090567023 0.11486742
0.06977725 -0.090717167 0.11500014
0.070379682 -0.090867266 0.11513284
0.071006656 -0.090942353 0.11519919
0.071633168 -0.09101741 0.11526555
0.072233245 -0.091167539 0.11539826
0.072884783 -0.091167539 0.11539826
0.073509879 -0.091242626 0.11546463
0.074134521 -0.091317669 0.11553097
0.074812494 -0.091242626 0.11546463
0.075436659 -0.091317669 0.11553097
0.068716966 -0.090429857 0.11387321
0.069322661 -0.090579659 0.11400625
0.069927417 -0.090729445 0.1141393
0.070531249 -0.090879261 0.11427234
0.071134135 -0.091029063 0.11440539
0.071736082 -0.091178864 0.11453845
0.072389022 -0.091178864 0.11453845
0.072989583 -0.091328636 0.11467147
0.073642053 -0.091328636 0.11467147
0.074241191 -0.091478452 0.11480451
0.074893199 -0.091478452 0.11480451
0.068256281 -0.090295345 0.11287637
0.068864316 -0.090444818 0.11300975
0.069471426 -0.090594262 0.1131431
0.07010261 -0.090669006 0.1132098
0.070682824 -0.090893209 0.11340986
0.071287118 -0.091042683 0.11354323
0.0719162 -0.091117397 0.11360991
0.072518855 -0.09126687 0.11374329
0.073146768 -0.091341615 0.11380999
0.073747776 -0.091491088 0.11394337
0.074374527 -0.091565818 0.11401004
0.0750008 -0.091640562 0.11407673
0.068377912 -0.090387166 0.1120774
0.068987116 -0.090536296 0.11221112
0.069620185 -0.090610877 0.11227798
0.070202723 -0.090834588 0.11247854
0.070834383 -0.090909168 0.1125454
0.071440093 -0.091058284 0.11267908
0.072070576 -0.091132864 0.11274594
0.072648674 -0.091356561 0.11294651
0.073277757 -0.091431141 0.11301337
0.073906377 -0.091505706 0.1130802
0.074534528 -0.091580257 0.11314705
0.068450883 -0.090629473 0.11141086
0.069085352 -0.09070389 0.11147788
0.069719359 -0.090778291 0.11154489
0.070352897 -0.090852663 0.1116119
0.070960701 -0.091001481 0.11174594
0.071593069 -0.091075897 0.11181296
0.072199225 -0.0912247 0.11194701
0.072804458 -0.091373518 0.11208105
0.073434956 -0.09144792 0.11214805
0.074064977 -0.091522306 0.11221506
0.067960486 -0.090575814 0.11047457
0.068572506 -0.090724304 0.11060894
0.069208153 -0.090798512 0.11067611
0.069843322 -0.090872765 0.1107433
0.070427977 -0.091095477 0.11094485
0.07108701 -0.091095477 0.11094485
0.071695052 -0.091243953 0.11107922
0.072302148 -0.091392428 0.11121358
0.072934285 -0.091466665 0.11128075
0.073565945 -0.091540903 0.11134796
0.074170701 -0.091689393 0.11148232
0.068129122 -0.09052448 0.10953596
0.068742782 -0.090672627 0.10967065
0.069404624 -0.090672627 0.10967065
0.070016876 -0.09082076 0.10980535
0.070653223 -0.090894833 0.1098727
0.071238585 -0.091117054 0.11007473
0.071848027 -0.091265187 0.11020944
0.072456531 -0.091413334 0.11034414
0.073064104 -0.091561481 0.11047885
0.073696941 -0.09163557 0.1105462
0.074329302 -0.091709629 0.11061355
0.068370037 -0.090253726 0.10839248
0.06896171 -0.09047547 0.10859503
0.069576539 -0.090623289 0.10873005
0.070240021 -0.090623289 0.10873005
0.070878476 -0.090697169 0.10879757
0.071440674 -0.090992808 0.10906763
0.072001003 -0.091288432 0.10933769
0.072636642 -0.091362327 0.1094052
0.073297784 -0.091362327 0.1094052
0.073854133 -0.091657966 0.10967527
0.069180638 -0.090281278 0.10751642
0.069822133 -0.090355009 0.10758407
0.070413575 -0.090576246 0.10778713
0.071053669 -0.090649977 0.10785481
0.071617506 -0.090944946 0.10812555
0.072230466 -0.091092438 0.1082609
0.072868221 -0.091166154 0.10832858
0.073479541 -0.091313645 0.10846394
0.068803668 -0.089869335 0.10623127
0.069375239 -0.090163648 0.10650267
0.069994047 -0.090310797 0.10663836
0.070611924 -0.090457946 0.10677405
0.071228862 -0.090605095 0.10690975
0.071844868 -0.090752259 0.10704544
0.07243444 -0.09097296 0.10724898
0.073074058 -0.091046557 0.10731682
0.073713221 -0.091120124 0.10738467
0.068373367 -0.089608222 0.10507821
0.068972304 -0.089828432 0.10528223
0.069545515 -0.090122074 0.10555428
0.070190519 -0.090195507 0.10562231
0.070810273 -0.090342298 0.10575831
0.071404055 -0.090562537 0.10596237
0.0720217 -0.090709358 0.1060984
0.072612911 -0.090929583 0.10630241
0.073254175 -0.091002986 0.10637042
0.067962006 -0.089277148 0.10385363
0.068516508 -0.089643359 0.10419451
0.069116846 -0.089863107 0.10439906
0.06971579 -0.090082839 0.10460359
0.070337877 -0.090229318 0.10473993
0.070983827 -0.090302557 0.10480811
0.071579248 -0.090522304 0.10501266
0.072223797 -0.090595543 0.10508083
0.07286787 -0.090668797 0.10514902
0.073562935 -0.090595543 0.10508083
0.067381769 -0.089461252 0.10310382
0.068032876 -0.089534357 0.10317217
0.068635792 -0.089753583 0.10337719
0.069237307 -0.089972809 0.1035822
0.06986174 -0.09011896 0.10371891
0.070509791 -0.09019205 0.10378726
0.071157381 -0.090265125 0.10385559
0.071779475 -0.090411291 0.10399228
0.072451152 -0.090411291 0.10399228
0.073071845 -0.090557456 0.10412897
0.073743045 -0.090557456 0.10412897
0.066822819 -0.089573801 0.10228418
0.067428552 -0.089792535 0.10248971
0.06808012 -0.089865461 0.10255823
0.068755075 -0.089865461 0.10255823
0.069333665 -0.090157107 0.10283226
0.070007689 -0.090157107 0.10283226
0.070657149 -0.090230018 0.10290076
0.071330935 -0.090230018 0.10290076
0.071979687 -0.090302944 0.10296927
0.072627984 -0.090375856 0.10303777
0.073301308 -0.090375856 0.10303777
0.073974617 -0.090375856 0.10303777
0.066869132 -0.089906231 0.10166889
0.067522101 -0.089979008 0.10173757
0.068174608 -0.090051726 0.10180625
0.068850502 -0.090051726 0.10180625
0.069502302 -0.090124488 0.10187493
0.07012932 -0.090269968 0.10201228
0.070804507 -0.090269968 0.10201228
0.071454905 -0.09034273 0.10208096
0.072104834 -0.090415463 0.10214961
0.072804816 -0.09034273 0.10208096
0.073454283 -0.090415463 0.10214961
0.074129 -0.090415463 0.10214961
0.06628444 -0.090094179 0.1009153
0.066938587 -0.090166762 0.10098413
0.067615651 -0.090166762 0.10098413
0.068245478 -0.09031193 0.10112181
0.068922073 -0.09031193 0.10112181
0.069598667 -0.09031193 0.10112181
0.070275269 -0.09031193 0.10112181
0.070927307 -0.090384498 0.10119063
0.071603663 -0.090384498 0.10119063
0.072254993 -0.090457097 0.10125948
0.072931126 -0.090457097 0.10125948
0.073581763 -0.090529665 0.10132831
0.074283384 -0.090457097 0.10125948
0.066307366 -0.090500683 0.10036735
0.066984899 -0.090500683 0.10036735
0.067685813 -0.090428278 0.10029835
0.068363585 -0.090428278 0.10029835
0.0690175 -0.090500683 0.10036735
0.069719121 -0.090428278 0.10029835
0.070396893 -0.090428278 0.10029835
0.071074657 -0.090428278 0.10029835
0.071727633 -0.090500683 0.10036735
0.072405167 -0.090500683 0.10036735
0.0730827 -0.090500683 0.10036735
0.073709242 -0.090645522 0.10050537
0.074412033 -0.090573102 0.10043637
0.066330284 -0.090907529 0.099819094
0.067008048 -0.090907529 0.099819094
0.067732595 -0.090763032 0.099680766
0.068434462 -0.090690777 0.099611565
0.069112927 -0.090690777 0.099611565
0.069791399 -0.090690777 0.099611565
0.07049419 -0.090618521 0.099542424
0.071172893 -0.090618521 0.099542424
0.071851596 -0.090618521 0.099542424
0.07250528 -0.090690777 0.099611565
0.073183753 -0.090690777 0.099611565
0.073862225 -0.090690777 0.099611565
0.07454069 -0.090690777 0.099611565
0.067077518 -0.09117052 0.099131823
0.067755982 -0.09117052 0.099131823
0.06845808 -0.091098443 0.099062502
0.06916064 -0.091026351 0.098993152
0.06986367 -0.090954274 0.098923817
0.070591494 -0.09081009 0.098785147
0.071295694 -0.090738028 0.098715812
0.071950771 -0.09081009 0.098785147
0.072630413 -0.09081009 0.098785147
0.073259532 -0.090954274 0.098923817
0.073938712 -0.090954274 0.098923817
0.074669339 -0.09081009 0.098785147
0.067123823 -0.091506436 0.098513067
0.067826152 -0.091434523 0.098443568
0.068552569 -0.091290668 0.09830457
0.06925606 -0.09121877 0.098235071
0.069960035 -0.091146842 0.098165557
0.070713118 -0.090931088 0.09795706
0.071393929 -0.090931088 0.09795706
0.072099537 -0.09085916 0.097887546
0.072780579 -0.09085916 0.097887546
0.073436365 -0.090931088 0.09795706
0.074117184 -0.090931088 0.09795706
0.074797988 -0.090931088 0.09795706
0.067989863 -0.0914125 0.097475648
0.068694308 -0.091340736 0.09740597
0.069399208 -0.091268986 0.097336307
0.07015276 -0.091053739 0.097127318
0.070834741 -0.091053739 0.097127318
0.071541287 -0.090981975 0.097057641
0.072223507 -0.090981975 0.097057641
0.072905719 -0.090981975 0.097057641
0.073562674 -0.091053739 0.097127318
0.074244663 -0.091053739 0.097127318
0.074952371 -0.090981975 0.097057641
0.068906911 -0.091178015 0.096295893
0.069613919 -0.09110643 0.096226066
0.070321389 -0.091034859 0.096156254
0.070980698 -0.09110643 0.096226066
0.071688637 -0.091034859 0.096156254
0.07234747 -0.09110643 0.096226066
0.073030859 -0.09110643 0.096226066
0.073714249 -0.09110643 0.096226066
0.074397638 -0.09110643 0.096226066
0.069804773 -0.091018274 0.095182836
0.070490032 -0.091018274 0.095182836
0.071150973 -0.091089696 0.095252857
0.071811438 -0.091161117 0.095322847
0.072496235 -0.091161117 0.095322847
0.073181026 -0.091161117 0.095322847
0.073840559 -0.091232553 0.095392853
0.074525118 -0.091232553 0.095392853
0.069379352 -0.090719014 0.093926504
0.070019484 -0.090861514 0.094066799
0.070658669 -0.091004029 0.094207138
0.071345575 -0.091004029 0.094207138
0.071958795 -0.091217816 0.094417647
0.072620198 -0.091289058 0.094487816
0.073306166 -0.091289058 0.094487816
0.073966861 -0.091360331 0.094557986
0.074652597 -0.091360331 0.094557986
0.068878621 -0.090636656 0.092877477
0.069568336 -0.090636656 0.092877477
0.070234194 -0.090707749 0.092947781
0.070899576 -0.090778843 0.093018144
0.071515851 -0.090992108 0.093229115
0.072155267 -0.091134295 0.093369782
0.07281854 -0.091205388 0.09344013
0.073506378 -0.091205388 0.09344013
0.0741437 -0.091347545 0.093580768
0.074805573 -0.091418669 0.093651101
0.068397298 -0.09048602 0.091755316
0.069065735 -0.090556949 0.091825798
0.06975732 -0.090556949 0.091825798
0.070425048 -0.090627879 0.09189631
0.071068212 -0.090769738 0.092037305
0.071710445 -0.090911582 0.092178285
0.072327182 -0.091124356 0.092389777
0.072992101 -0.091195285 0.092460245
0.073681578 -0.091195285 0.092460245
0.07432054 -0.091337115 0.092601255
0.074958555 -0.091478974 0.092742249
0.068513073 -0.090621427 0.090912819
0.069206059 -0.090621427 0.090912819
0.069899052 -0.090621427 0.090912819
0.070592038 -0.090621427 0.090912819
0.071260944 -0.090692177 0.090983465
0.071905054 -0.090833694 0.091124788
0.072548218 -0.09097521 0.091266125
0.073190451 -0.091116741 0.091407448
0.073831744 -0.091258273 0.091548771
0.074497372 -0.091329008 0.091619417
0.068651997 -0.090687856 0.089997828
0.069346391 -0.090687856 0.089997828
0.070064411 -0.090617284 0.089927018
0.070735186 -0.090687856 0.089997828
0.071453668 -0.090617284 0.089927018
0.07207533 -0.090829059 0.090139478
0.072744697 -0.090899646 0.090210304
0.073364004 -0.091111436 0.090422809
0.074031964 -0.091182038 0.090493605
0.074699461 -0.09125264 0.090564445
0.068698302 -0.091038018 0.089364842
0.069463328 -0.090826735 0.089151859
0.070182517 -0.090756327 0.08908087
0.070902184 -0.090685874 0.089009866
0.071550034 -0.090826735 0.089151859
0.072245598 -0.090826735 0.089151859
0.072892047 -0.090967596 0.089293852
0.073587142 -0.090967596 0.089293852
0.074257217 -0.091038018 0.089364842
0.068883538 -0.090967268 0.088304237
0.069580272 -0.090967268 0.088304237
0.070371501 -0.090686202 0.088019595
0.07109303 -0.090615958 0.087948456
0.071766853 -0.090686202 0.088019595
0.072415873 -0.090826735 0.088161916
0.073162198 -0.090686202 0.088019595
0.073810287 -0.090826735 0.088161916
0.069068775 -0.090899155 0.087240964
0.069720604 -0.091039345 0.087383613
0.070560485 -0.090618744 0.086955667
0.071307741 -0.090478584 0.086813033
0.072007753 -0.090478584 0.086813033
0.072683454 -0.090548664 0.08688435
0.073407792 -0.090478584 0.086813033
0.074083015 -0.090548664 0.08688435
0.069392927 -0.090414107 0.085746124
0.070118204 -0.090344176 0.085674644
0.070820332 -0.090344176 0.085674644
0.071570165 -0.090204298 0.085531667
0.072224572 -0.090344176 0.085674644
0.072902381 -0.090414107 0.085746124
0.073604271 -0.090414107 0.085746124
0.074281365 -0.090484008 0.085817605
0.06969393 -0.090003446 0.08431828
0.070375472 -0.090073213 0.084389955
0.071103804 -0.090003446 0.08431828
0.07176102 -0.09014298 0.0844616
0.072393216 -0.090352282 0.084676549
0.073096983 -0.090352282 0.084676549
0.073800743 -0.090352282 0.084676549
0.069424473 -0.089179501 0.082455248
0.070064396 -0.089388296 0.082670689
0.07077308 -0.089388296 0.082670689
0.071458139 -0.089457914 0.082742527
0.072095014 -0.089666709 0.082957983
0.072778672 -0.089736298 0.083029792
0.073486187 -0.089736298 0.083029792
0.074169129 -0.089805916 0.08310163
0 0 0 1 0 0 0 1 0 0 0 1 0 0 0 0 0 559 1 0 0
