ply
format ascii 1.0
comment PCL generated
element vertex 543
property float x
property float y
property float z
element camera 1
property float view_px
property float view_py
property float view_pz
property float x_axisx
property float x_axisy
property float x_axisz
property float y_axisx
property float y_axisy
property float y_axisz
property float z_axisx
property float z_axisy
property float z_axisz
property float focal
property float scalex
property float scaley
property float centerx
property float centery
property int viewportx
property int viewporty
property float k1
property float k2
end_header
0.069060132 -0.088745475 0.13167964
0.069714688 -0.088666752 0.13161692
0.070343509 -0.088666752 0.13161692
0.070945889 -0.088745475 0.13167964
0.067802958 -0.089189947 0.13123517
0.068406053 -0.089268491 0.13129804
0.069034405 -0.089268491 0.13129804
0.069688715 -0.089189947 0.13123517
0.070317306 -0.089189947 0.13123517
0.070945889 -0.089189947 0.13123517
0.071547814 -0.089268491 0.13129804
0.072149262 -0.089347035 0.13136092
0.067124315 -0.089791179 0.13091677
0.067752436 -0.089791179 0.13091677
0.068380557 -0.089791179 0.13091677
0.069034405 -0.089712799 0.13085373
0.069662757 -0.089712799 0.13085373
0.070317306 -0.089634418 0.13079068
0.070919462 -0.089712799 0.13085373
0.071521141 -0.089791179 0.13091677
0.072122365 -0.089869559 0.13097982
0.072750241 -0.089869559 0.13097982
0.066446617 -0.090391725 0.13059902
0.067099288 -0.090313539 0.13053584
0.067701921 -0.090391725 0.13059902
0.068355061 -0.090313539 0.13053584
0.068982944 -0.090313539 0.13053584
0.069636784 -0.090235338 0.13047263
0.070291109 -0.090157107 0.13040942
0.070893019 -0.090235338 0.13047263
0.071494475 -0.090313539 0.13053584
0.072095469 -0.090391725 0.13059902
0.072695971 -0.090469956 0.13066225
0.073323391 -0.090469956 0.13066225
0.066397026 -0.090991646 0.13028197
0.067049235 -0.090913609 0.1302186
0.067701921 -0.090835541 0.13015521
0.068329573 -0.090835541 0.13015521
0.068931475 -0.090913609 0.1302186
0.069584869 -0.090835541 0.13015521
0.070238717 -0.090757519 0.13009186
0.070866592 -0.090757519 0.13009186
0.071441144 -0.090913609 0.1302186
0.072068557 -0.090913609 0.1302186
0.072695971 -0.090913609 0.1302186
0.073296025 -0.090991646 0.13028197
0.073923208 -0.090991646 0.13028197
0.065745287 -0.091513023 0.12990203
0.066397026 -0.091435134 0.12983848
0.067024209 -0.091435134 0.12983848
0.067626126 -0.091513023 0.12990203
0.068304069 -0.091357261 0.12977494
0.068931475 -0.091357261 0.12977494
0.069584869 -0.091279358 0.12971139
0.070212521 -0.091279358 0.12971139
0.070840165 -0.091279358 0.12971139
0.071441144 -0.091357261 0.12977494
0.072068557 -0.091357261 0.12977494
0.072668836 -0.091435134 0.12983848
0.073268652 -0.091513023 0.12990203
0.073895596 -0.091513023 0.12990203
0.074494705 -0.091590896 0.12996557
0.06572073 -0.092034042 0.12952241
0.066347443 -0.092034042 0.12952241
0.066999175 -0.091956347 0.12945871
0.067600869 -0.092034042 0.12952241
0.068253078 -0.091956347 0.12945871
0.068905748 -0.091878608 0.12939501
0.069558896 -0.091800898 0.12933129
0.070186317 -0.091800898 0.12933129
0.070813723 -0.091800898 0.12933129
0.071441144 -0.091800898 0.12933129
0.072041661 -0.091878608 0.12939501
0.072668836 -0.091878608 0.12939501
0.073296025 -0.091878608 0.12939501
0.073895596 -0.091956347 0.12945871
0.074494705 -0.092034042 0.12952241
0.06572073 -0.092477202 0.12907927
0.066347443 -0.092477202 0.12907927
0.066999175 -0.092399657 0.1290154
0.067600869 -0.092477202 0.12907927
0.068227582 -0.092477202 0.12907927
0.068905748 -0.092322096 0.12895152
0.069558896 -0.092244551 0.12888765
0.070186317 -0.092244551 0.12888765
0.070813723 -0.092244551 0.12888765
0.071441144 -0.092244551 0.12888765
0.072041661 -0.092322096 0.12895152
0.072668836 -0.092322096 0.12895152
0.073268652 -0.092399657 0.1290154
0.073895596 -0.092399657 0.1290154
0.07452254 -0.092399657 0.1290154
0.066347443 -0.092920363 0.12863611
0.066974156 -0.092920363 0.12863611
0.067626126 -0.092842981 0.12857208
0.068253078 -0.092842981 0.12857208
0.068905748 -0.092765585 0.12850803
0.069532938 -0.092765585 0.12850803
0.070186317 -0.092688203 0.128444
0.070813723 -0.092688203 0.128444
0.071441144 -0.092688203 0.128444
0.072068557 -0.092688203 0.128444
0.072695971 -0.092688203 0.128444
0.073268652 -0.092842981 0.12857208
0.073923208 -0.092765585 0.12850803
0.07452254 -0.092842981 0.12857208
0.066347443 -0.093363509 0.12819296
0.067024209 -0.093209058 0.12806454
0.067651391 -0.093209058 0.12806454
0.068278573 -0.093209058 0.12806454
0.068957217 -0.093054622 0.12793614
0.069584869 -0.093054622 0.12793614
0.070238717 -0.092977419 0.12787196
0.070866592 -0.092977419 0.12787196
0.071494475 -0.092977419 0.12787196
0.072068557 -0.093131855 0.12800035
0.072695971 -0.093131855 0.12800035
0.073323391 -0.093131855 0.12800035
0.073895596 -0.093286291 0.12812877
0.067024209 -0.093652546 0.12762107
0.067651391 -0.093652546 0.12762107
0.068304069 -0.093575507 0.1275567
0.068957217 -0.093498439 0.12749232
0.069584869 -0.093498439 0.12749232
0.070264906 -0.093344361 0.12736361
0.070893019 -0.093344361 0.12736361
0.071494475 -0.0934214 0.12742797
0.072176166 -0.093267292 0.12729923
0.072777376 -0.093344361 0.12736361
0.073378131 -0.0934214 0.12742797
0.073950805 -0.093575507 0.1275567
0.067124315 -0.093788505 0.12691946
0.067777701 -0.093711615 0.12685493
0.068431549 -0.093634725 0.12679039
0.069060132 -0.093634725 0.12679039
0.069818549 -0.093250275 0.12646769
0.070422105 -0.09332718 0.12653224
0.071025193 -0.093404055 0.12659676
0.071627811 -0.093480945 0.12666132
0.072229974 -0.093557835 0.12672584
0.072831646 -0.093634725 0.12679039
0.073405497 -0.093788505 0.12691946
0.068005055 -0.093465418 0.12582831
0.068661012 -0.093388706 0.12576361
0.069265977 -0.093465418 0.12582831
0.069948368 -0.093311965 0.12569889
0.070579298 -0.093311965 0.12569889
0.071183786 -0.093388706 0.12576361
0.071787819 -0.093465418 0.12582831
0.072337575 -0.093695566 0.1260224
0.072913058 -0.093849018 0.1261518
0.073514976 -0.093925759 0.1262165
0.068941474 -0.092992559 0.12460414
0.069626197 -0.09283945 0.12447439
0.070233978 -0.092915997 0.12453926
0.070788883 -0.093145669 0.12473385
0.071421683 -0.093145669 0.12473385
0.072161153 -0.09283945 0.12447439
0.072743326 -0.090685084 0.12012337
0.069621816 -0.09083724 0.11940552
0.070292771 -0.090761334 0.11933997
0.070964172 -0.090685472 0.11927447
0.071636058 -0.090609565 0.11920892
0.072256014 -0.090685472 0.11927447
0.072928362 -0.090609565 0.11920892
0.069823913 -0.090687811 0.11842357
0.070445739 -0.090763554 0.11848927
0.071092822 -0.090763554 0.11848927
0.071713954 -0.090839282 0.11855495
0.072465606 -0.090536371 0.11829217
0.073139817 -0.090460643 0.1182265
0.069351785 -0.090616614 0.11750482
0.06997548 -0.090692177 0.1175707
0.07062421 -0.090692177 0.1175707
0.071247205 -0.090767741 0.11763655
0.071895704 -0.090767741 0.11763655
0.072518006 -0.09084329 0.11770241
0.073219113 -0.090692177 0.1175707
0.073814519 -0.09084329 0.11770241
0.069074728 -0.089944541 0.11605556
0.069627091 -0.090246126 0.11631969
0.070177577 -0.090547711 0.11658378
0.070777193 -0.09069851 0.11671583
0.071401589 -0.09077391 0.11678185
0.072077453 -0.09069851 0.11671583
0.072648995 -0.090924695 0.11691388
0.073298417 -0.090924695 0.11691388
0.073921181 -0.09100011 0.11697993
0.069223486 -0.089954525 0.11519708
0.069752224 -0.090330675 0.11552802
0.070354417 -0.090481147 0.1156604
0.070904672 -0.090782076 0.11592516
0.071530238 -0.090857297 0.11599134
0.072129384 -0.091007754 0.11612374
0.072753794 -0.09108299 0.11618991
0.073404156 -0.09108299 0.11618991
0.074054524 -0.09108299 0.11618991
0.074704893 -0.09108299 0.11618991
0.069322661 -0.090116635 0.11446927
0.069902398 -0.090341821 0.11466834
0.070480719 -0.090567023 0.11486742
0.071083143 -0.090717167 0.11500014
0.071658894 -0.090942353 0.11519919
0.072285175 -0.09101741 0.11526555
0.072858579 -0.091242626 0.11546463
0.073483452 -0.091317669 0.11553097
0.074134521 -0.091317669 0.11553097
0.07478559 -0.091317669 0.11553097
0.068450883 -0.089231461 0.11280887
0.069471426 -0.09013024 0.11360712
0.070077591 -0.090280041 0.11374018
0.070607036 -0.090654537 0.11407277
0.07121063 -0.090804338 0.11420581
0.071761817 -0.091103956 0.1144719
0.072363064 -0.091253743 0.11460495
0.072989583 -0.091328636 0.11467147
0.073615611 -0.091403559 0.11473799
0.074241191 -0.091478452 0.11480451
0.067936398 -0.089249045 0.11194272
0.068523854 -0.089473262 0.1121428
0.069060795 -0.089846939 0.11247624
0.069570594 -0.090295345 0.11287637
0.070177697 -0.090444818 0.11300975
0.070758604 -0.090669006 0.1132098
0.07133811 -0.090893209 0.11340986
0.0719162 -0.091117397 0.11360991
0.072518855 -0.09126687 0.11374329
0.073094368 -0.091491088 0.11394337
0.073747776 -0.091491088 0.11394337
0.074347854 -0.091640562 0.11407673
0.068032756 -0.089417785 0.11120833
0.06859684 -0.089716047 0.11147574
0.069159031 -0.090014324 0.11174315
0.069719359 -0.090312615 0.11201057
0.070302837 -0.090536296 0.11221112
0.070884913 -0.090760022 0.11241169
0.071491078 -0.090909168 0.1125454
0.072070576 -0.091132864 0.11274594
0.072648674 -0.091356561 0.11294651
0.07325156 -0.091505706 0.1130802
0.073879942 -0.091580257 0.11314705
0.074507862 -0.091654837 0.11321391
0.068105035 -0.089662224 0.1105396
0.06869413 -0.089885443 0.11074068
0.069257274 -0.090183049 0.11100873
0.069818534 -0.090480655 0.11127682
0.070402943 -0.09070389 0.11147788
0.07101123 -0.090852663 0.1116119
0.071618564 -0.091001481 0.11174594
0.072173499 -0.091299102 0.11201403
0.072778493 -0.09144792 0.11214805
0.073434956 -0.09144792 0.11214805
0.074064977 -0.091522306 0.11221506
0.067609951 -0.089610711 0.10960117
0.068201393 -0.089833438 0.10980272
0.068767115 -0.090130374 0.11007145
0.069355503 -0.090353101 0.11027302
0.069942497 -0.090575814 0.11047457
0.07052809 -0.090798512 0.11067611
0.07116279 -0.090872765 0.1107433
0.071746044 -0.091095477 0.11094485
0.072353609 -0.091243953 0.11107922
0.072960243 -0.091392428 0.11121358
0.073592149 -0.091466665 0.11128075
0.067705385 -0.089783743 0.10886246
0.068273671 -0.090080038 0.10913184
0.068913057 -0.090154126 0.10919921
0.06950286 -0.090376332 0.10940126
0.070066467 -0.090672627 0.10967065
0.070703283 -0.090746686 0.10973799
0.071263842 -0.091042981 0.11000741
0.071873523 -0.091191128 0.11014211
0.072507992 -0.091265187 0.11020944
0.073116034 -0.091413334 0.11034414
0.073723137 -0.091561481 0.11047885
0.067229711 -0.089662492 0.10785235
0.067824662 -0.089884207 0.10805489
0.068418212 -0.090105921 0.10825744
0.069059014 -0.090179831 0.10832496
0.069625661 -0.09047547 0.10859503
0.070264816 -0.09054935 0.10866253
0.070853442 -0.090771094 0.10886508
0.071491197 -0.090844989 0.1089326
0.072077498 -0.091066688 0.10913514
0.07271383 -0.091140628 0.10920265
0.073323749 -0.091288432 0.10933769
0.073985122 -0.091288432 0.10933769
0.074620061 -0.091362327 0.1094052
0.067347817 -0.089765102 0.10704266
0.067920096 -0.09006004 0.10731336
0.068538666 -0.090207532 0.10744873
0.069180638 -0.090281278 0.10751642
0.069822133 -0.090355009 0.10758407
0.070413575 -0.090576246 0.10778713
0.071053669 -0.090649977 0.10785481
0.071668029 -0.090797469 0.10799018
0.072281457 -0.090944946 0.10812555
0.072893947 -0.091092438 0.1082609
0.073531464 -0.091166154 0.10832858
0.074220911 -0.091092438 0.1082609
0.067465939 -0.089869335 0.10623127
0.068063229 -0.090090081 0.10643482
0.068707302 -0.090163648 0.10650267
0.069326587 -0.090310797 0.10663836
0.069994047 -0.090310797 0.10663836
0.070587136 -0.090531513 0.10684189
0.071228862 -0.090605095 0.10690975
0.071844868 -0.090752259 0.10704544
0.072485432 -0.090825826 0.10711327
0.073099792 -0.09097296 0.10724898
0.073739178 -0.091046557 0.10731682
0.074404299 -0.091046557 0.10731682
0.067560419 -0.090048671 0.10548629
0.068182513 -0.090195507 0.10562231
0.068851843 -0.090195507 0.10562231
0.069496863 -0.09026891 0.1056903
0.070141405 -0.090342298 0.10575831
0.07076069 -0.090489119 0.10589434
0.071379028 -0.09063594 0.10603037
0.0720217 -0.090709358 0.1060984
0.072612911 -0.090929583 0.10630241
0.073254175 -0.091002986 0.10637042
0.073920935 -0.091002986 0.10637042
0.067678541 -0.090156063 0.10467175
0.068325654 -0.090229318 0.10473993
0.068972304 -0.090302557 0.10480811
0.069618486 -0.090375811 0.10487629
0.070288762 -0.090375811 0.10487629
0.070909441 -0.090522304 0.10501266
0.071554221 -0.090595543 0.10508083
0.072173275 -0.090742037 0.10521717
0.072765894 -0.090961754 0.10542171
0.073408552 -0.091035008 0.10548989
0.074050762 -0.091108248 0.10555807
0.067820273 -0.09019205 0.10378726
0.068468794 -0.090265125 0.10385559
0.069116846 -0.090338215 0.10392395
0.069764443 -0.090411291 0.10399228
0.07043612 -0.090411291 0.10399228
0.071107797 -0.090411291 0.10399228
0.071704395 -0.090630502 0.10419729
0.072350107 -0.090703592 0.10426566
0.072969854 -0.090849757 0.10440235
0.073640123 -0.090849757 0.10440235
0.074232511 -0.091068998 0.10460737
0.067962006 -0.090230018 0.10290076
0.068611935 -0.090302944 0.10296927
0.069285482 -0.090302944 0.10296927
0.069934718 -0.090375856 0.10303777
0.070608035 -0.090375856 0.10303777
0.071281351 -0.090375856 0.10303777
0.071879588 -0.090594575 0.10324329
0.072526939 -0.090667501 0.10331181
0.073199324 -0.090667501 0.10331181
0.073845968 -0.090740412 0.10338031
0.06808012 -0.09034273 0.10208096
0.068755075 -0.09034273 0.10208096
0.069405943 -0.090415463 0.10214961
0.070080668 -0.090415463 0.10214961
0.070755392 -0.090415463 0.10214961
0.071405314 -0.090488225 0.1022183
0.0720798 -0.090488225 0.1022183
0.072754294 -0.090488225 0.1022183
0.073377796 -0.09063372 0.10235564
0.074026078 -0.090706453 0.10242432
0.068198226 -0.090457097 0.10125948
0.068874359 -0.090457097 0.10125948
0.069550484 -0.090457097 0.10125948
0.070226617 -0.090457097 0.10125948
0.070902742 -0.090457097 0.10125948
0.07155408 -0.090529665 0.10132831
0.07220494 -0.090602249 0.10139717
0.072880603 -0.090602249 0.10139717
0.073505282 -0.090747401 0.10153484
0.074231923 -0.090602249 0.10139717
0.067639038 -0.090573102 0.10043637
0.06831634 -0.090573102 0.10043637
0.068993635 -0.090573102 0.10043637
0.069670938 -0.090573102 0.10043637
0.07034824 -0.090573102 0.10043637
0.071025535 -0.090573102 0.10043637
0.071678042 -0.090645522 0.10050537
0.072355106 -0.090645522 0.10050537
0.073032178 -0.090645522 0.10050537
0.073709242 -0.090645522 0.10050537
0.074334845 -0.090790361 0.10064338
0.067685813 -0.090907529 0.099819094
0.068363585 -0.090907529 0.099819094
0.06908907 -0.090763032 0.099680766
0.069767304 -0.090763032 0.099680766
0.070445538 -0.090763032 0.099680766
0.071123779 -0.090763032 0.099680766
0.071826808 -0.090690777 0.099611565
0.072480246 -0.090763032 0.099680766
0.073158488 -0.090763032 0.099680766
0.073836721 -0.090763032 0.099680766
0.074514955 -0.090763032 0.099680766
0.067755982 -0.09117052 0.099131823
0.06845808 -0.091098443 0.099062502
0.069136783 -0.091098443 0.099062502
0.069839582 -0.091026351 0.098993152
0.070542842 -0.090954274 0.098923817
0.071222015 -0.090954274 0.098923817
0.071876399 -0.091026351 0.098993152
0.07258036 -0.090954274 0.098923817
0.073234275 -0.091026351 0.098993152
0.073913217 -0.091026351 0.098993152
0.074617878 -0.090954274 0.098923817
0.067146979 -0.091434523 0.098443568
0.067872927 -0.091290668 0.09830457
0.068552569 -0.091290668 0.09830457
0.06925606 -0.09121877 0.098235071
0.06993594 -0.09121877 0.098235071
0.070640147 -0.091146842 0.098165557
0.071344808 -0.091074929 0.098096073
0.07202515 -0.091074929 0.098096073
0.072705492 -0.091074929 0.098096073
0.073385842 -0.091074929 0.098096073
0.074040696 -0.091146842 0.098165557
0.074746527 -0.091074929 0.098096073
0.067309052 -0.0914125 0.097475648
0.067989863 -0.0914125 0.097475648
0.068694308 -0.091340736 0.09740597
0.069399208 -0.091268986 0.097336307
0.070080489 -0.091268986 0.097336307
0.070834741 -0.091053739 0.097127318
0.071516722 -0.091053739 0.097127318
0.072198704 -0.091053739 0.097127318
0.072830632 -0.091197252 0.097266644
0.073512152 -0.091197252 0.097266644
0.074193664 -0.091197252 0.097266644
0.074926637 -0.091053739 0.097127318
0.068836041 -0.091392785 0.096505418
0.069542348 -0.091321185 0.096435577
0.070273213 -0.091178015 0.096295893
0.070956372 -0.091178015 0.096295893
0.071639523 -0.091178015 0.096295893
0.072322682 -0.091178015 0.096295893
0.073005833 -0.091178015 0.096295893
0.073638462 -0.091321185 0.096435577
0.074321151 -0.091321185 0.096435577
0.068293914 -0.091446817 0.09560284
0.069001392 -0.091375396 0.095532864
0.069685481 -0.091375396 0.095532864
0.070417754 -0.091232553 0.095392853
0.071126647 -0.091161117 0.095322847
0.071737759 -0.091375396 0.095532864
0.072421849 -0.091375396 0.095532864
0.073105939 -0.091375396 0.095532864
0.073790029 -0.091375396 0.095532864
0.074474126 -0.091375396 0.095532864
0.067795292 -0.091360331 0.094557986
0.068481021 -0.091360331 0.094557986
0.069190376 -0.091289058 0.094487816
0.069876343 -0.091289058 0.094487816
0.070586391 -0.091217816 0.094417647
0.071248271 -0.091289058 0.094487816
0.071909674 -0.091360331 0.094557986
0.072595403 -0.091360331 0.094557986
0.073281132 -0.091360331 0.094557986
0.073966861 -0.091360331 0.094557986
0.074652597 -0.091360331 0.094557986
0.068003677 -0.091205388 0.09344013
0.068691514 -0.091205388 0.09344013
0.069402978 -0.091134295 0.093369782
0.07006719 -0.091205388 0.09344013
0.070779122 -0.091134295 0.093369782
0.071394227 -0.091347545 0.093580768
0.072057031 -0.091418669 0.093651101
0.072744168 -0.091418669 0.093651101
0.073431298 -0.091418669 0.093651101
0.074093178 -0.091489732 0.093721434
0.068188913 -0.091124356 0.092389777
0.068878621 -0.091124356 0.092389777
0.069639206 -0.090911582 0.092178285
0.070305765 -0.090982497 0.092248783
0.070995942 -0.090982497 0.092248783
0.071613155 -0.091195285 0.092460245
0.07225351 -0.091337115 0.092601255
0.072892927 -0.091478974 0.092742249
0.073581465 -0.091478974 0.092742249
0.07427001 -0.091478974 0.092742249
0.06837415 -0.091045976 0.091336772
0.069065735 -0.091045976 0.091336772
0.06982819 -0.090833694 0.091124788
0.070472762 -0.09097521 0.091266125
0.071164578 -0.09097521 0.091266125
0.07180775 -0.091116741 0.091407448
0.072425425 -0.091329008 0.091619417
0.073116072 -0.091329008 0.091619417
0.073806718 -0.091329008 0.091619417
0.0744721 -0.091399774 0.091690093
0.068559378 -0.090970248 0.090281144
0.069252834 -0.090970248 0.090281144
0.069993541 -0.090829059 0.090139478
0.070639752 -0.090970248 0.090281144
0.07135731 -0.090899646 0.090210304
0.072026677 -0.090970248 0.090281144
0.072671011 -0.091111436 0.090422809
0.073339209 -0.091182038 0.090493605
0.074006937 -0.09125264 0.090564445
0.074699461 -0.09125264 0.090564445
0.069393165 -0.091038018 0.089364842
0.070088036 -0.091038018 0.089364842
0.0707829 -0.091038018 0.089364842
0.071501851 -0.090967596 0.089293852
0.072172627 -0.091038018 0.089364842
0.072842926 -0.091108456 0.089435846
0.073537558 -0.091108456 0.089435846
0.074207157 -0.091178879 0.089506805
0.069627047 -0.090826735 0.088161916
0.070324257 -0.090826735 0.088161916
0.070997611 -0.090896994 0.088233069
0.071694583 -0.090896994 0.088233069
0.072367229 -0.090967268 0.088304237
0.073063962 -0.090967268 0.088304237
0.073735908 -0.091037527 0.088375375
0.07443241 -0.091037527 0.088375375
0.06981416 -0.09075895 0.087098315
0.070631355 -0.090408474 0.086741701
0.071283884 -0.090548664 0.08688435
0.071911395 -0.09075895 0.087098315
0.072610483 -0.09075895 0.087098315
0.073309556 -0.09075895 0.087098315
0.073909461 -0.091039345 0.087383613
0.070118204 -0.090344176 0.085674644
0.070891201 -0.090134367 0.085460156
0.071427032 -0.090623885 0.085960582
0.072128214 -0.090623885 0.085960582
0.072829403 -0.090623885 0.085960582
0.073506027 -0.090693831 0.086032078
0.070445642 -0.089863911 0.084174976
0.071103804 -0.090003446 0.08431828
0.071665592 -0.090422049 0.084748223
0.072393216 -0.090352282 0.084676549
0.073024005 -0.090561569 0.084891543
0.073702507 -0.090631336 0.084963188
0.070041239 -0.089457914 0.082742527
0.070726298 -0.089527503 0.082814336
0.07143452 -0.089527503 0.082814336
0.071999587 -0.089945123 0.083245263
0.072610036 -0.090223506 0.083532542
0.073315911 -0.090223506 0.083532542
0 0 0 1 0 0 0 1 0 0 0 1 0 0 0 0 0 543 1 0 0
