ply
format ascii 1.0
comment PCL generated
element vertex 488
property float x
property float y
property float z
element camera 1
property float view_px
property float view_py
property float view_pz
property float x_axisx
property float x_axisy
property float x_axisz
property float y_axisx
property float y_axisy
property float y_axisz
property float z_axisx
property float z_axisy
property float z_axisz
property float focal
property float scalex
property float scaley
property float centerx
property float centery
property int viewportx
property int viewporty
property float k1
property float k2
end_header
0.069714688 -0.088666752 0.13161692
0.070343509 -0.088666752 0.13161692
0.070972323 -0.088666752 0.13161692
0.069060132 -0.089189947 0.13123517
0.069688715 -0.089189947 0.13123517
0.070343509 -0.089111388 0.13117227
0.070972323 -0.089111388 0.13117227
0.071601145 -0.089111388 0.13117227
0.072176166 -0.089268491 0.13129804
0.067752436 -0.089791179 0.13091677
0.068380557 -0.089791179 0.13091677
0.069034405 -0.089712799 0.13085373
0.069662757 -0.089712799 0.13085373
0.070317306 -0.089634418 0.13079068
0.070945889 -0.089634418 0.13079068
0.071547814 -0.089712799 0.13085373
0.072149262 -0.089791179 0.13091677
0.072750241 -0.089869559 0.13097982
0.073378131 -0.089869559 0.13097982
0.067074262 -0.090391725 0.13059902
0.067701921 -0.090391725 0.13059902
0.068355061 -0.090313539 0.13053584
0.069008671 -0.090235338 0.13047263
0.069662757 -0.090157107 0.13040942
0.070291109 -0.090157107 0.13040942
0.070919462 -0.090157107 0.13040942
0.071547814 -0.090157107 0.13040942
0.072149262 -0.090235338 0.13047263
0.072750241 -0.090313539 0.13053584
0.073350765 -0.090391725 0.13059902
0.073950805 -0.090469956 0.13066225
0.067049235 -0.090913609 0.1302186
0.067676648 -0.090913609 0.1302186
0.068329573 -0.090835541 0.13015521
0.068982944 -0.090757519 0.13009186
0.069610827 -0.090757519 0.13009186
0.070264906 -0.090679482 0.13002849
0.070893019 -0.090679482 0.13002849
0.071521141 -0.090679482 0.13002849
0.072122365 -0.090757519 0.13009186
0.072723113 -0.090835541 0.13015521
0.073350765 -0.090835541 0.13015521
0.073950805 -0.090913609 0.1302186
0.074550383 -0.090991646 0.13028197
0.066372231 -0.091513023 0.12990203
0.067024209 -0.091435134 0.12983848
0.067651391 -0.091435134 0.12983848
0.068304069 -0.091357261 0.12977494
0.068957217 -0.091279358 0.12971139
0.069610827 -0.091201499 0.12964788
0.070238717 -0.091201499 0.12964788
0.070893019 -0.091123626 0.12958434
0.071521141 -0.091123626 0.12958434
0.072122365 -0.091201499 0.12964788
0.072750241 -0.091201499 0.12964788
0.073350765 -0.091279358 0.12971139
0.073978417 -0.091279358 0.12971139
0.074550383 -0.091435134 0.12983848
0.066347443 -0.092034042 0.12952241
0.066974156 -0.092034042 0.12952241
0.067651391 -0.091878608 0.12939501
0.068304069 -0.091800898 0.12933129
0.068931475 -0.091800898 0.12933129
0.069584869 -0.091723174 0.12926759
0.070238717 -0.091645479 0.1292039
0.070866592 -0.091645479 0.1292039
0.071494475 -0.091645479 0.1292039
0.072122365 -0.091645479 0.1292039
0.072723113 -0.091723174 0.12926759
0.073350765 -0.091723174 0.12926759
0.073978417 -0.091723174 0.12926759
0.074578218 -0.091800898 0.12933129
0.066999175 -0.092399657 0.1290154
0.067651391 -0.092322096 0.12895152
0.068278573 -0.092322096 0.12895152
0.068931475 -0.092244551 0.12888765
0.069584869 -0.09216699 0.12882377
0.070264906 -0.092011914 0.12869605
0.070893019 -0.092011914 0.12869605
0.071521141 -0.092011914 0.12869605
0.072122365 -0.092089459 0.12875992
0.072723113 -0.09216699 0.12882377
0.073378131 -0.092089459 0.12875992
0.073978417 -0.09216699 0.12882377
0.074606061 -0.09216699 0.12882377
0.067024209 -0.092765585 0.12850803
0.067651391 -0.092765585 0.12850803
0.068304069 -0.092688203 0.128444
0.068931475 -0.092688203 0.128444
0.069610827 -0.092533439 0.12831593
0.070264906 -0.092456073 0.1282519
0.070893019 -0.092456073 0.1282519
0.071521141 -0.092456073 0.1282519
0.072149262 -0.092456073 0.1282519
0.072750241 -0.092533439 0.12831593
0.073378131 -0.092533439 0.12831593
0.074006014 -0.092533439 0.12831593
0.074578218 -0.092688203 0.128444
0.067626126 -0.093286291 0.12812877
0.068304069 -0.093131855 0.12800035
0.068957217 -0.093054622 0.12793614
0.069584869 -0.093054622 0.12793614
0.070291109 -0.092822984 0.12774354
0.070972323 -0.092668533 0.12761512
0.071574479 -0.092745766 0.12767935
0.072176166 -0.092822984 0.12774354
0.072777376 -0.092900217 0.12780775
0.073378131 -0.092977419 0.12787196
0.074006014 -0.092977419 0.12787196
0.068304069 -0.093575507 0.1275567
0.069034405 -0.093267292 0.12729923
0.069636784 -0.093344361 0.12736361
0.070369706 -0.09303613 0.12710613
0.07105162 -0.092882037 0.12697738
0.071681149 -0.092882037 0.12697738
0.072256871 -0.09303613 0.12710613
0.072885916 -0.09303613 0.12710613
0.07348761 -0.093113184 0.12717049
0.074033618 -0.093344361 0.12736361
0.06790401 -0.09332718 0.12653224
0.068559036 -0.093250275 0.12646769
0.069214515 -0.0931734 0.12640318
0.069922395 -0.092942744 0.12620957
0.070553094 -0.092942744 0.12620957
0.071183786 -0.092942744 0.12620957
0.071814477 -0.092942744 0.12620957
0.072364479 -0.0931734 0.12640318
0.072940193 -0.09332718 0.12653224
0.073514976 -0.093480945 0.12666132
0.074116431 -0.093557835 0.12672584
0.06942036 -0.093005091 0.12544011
0.070156083 -0.092698216 0.1251813
0.070736483 -0.092851654 0.12531072
0.071368814 -0.092851654 0.12531072
0.072027817 -0.092774928 0.125246
0.073679194 -0.093465418 0.12582831
0.070701338 -0.091537982 0.12337168
0.071234263 -0.091844201 0.12363113
0.073510036 -0.092609778 0.1242798
0.070655413 -0.090686694 0.12097028
0.071298517 -0.090686694 0.12097028
0.07181064 -0.091067806 0.12129626
0.072505429 -0.090915382 0.12116589
0.070139788 -0.09076114 0.12018874
0.070784062 -0.09076114 0.12018874
0.071376413 -0.090913266 0.12031946
0.072046429 -0.090837181 0.12025408
0.072690465 -0.090837181 0.12025408
0.073361173 -0.09076114 0.12018874
0.069571294 -0.090989038 0.11953658
0.070216276 -0.090989038 0.11953658
0.07086125 -0.090989038 0.11953658
0.071506232 -0.090989038 0.11953658
0.072151214 -0.090989038 0.11953658
0.072796188 -0.090989038 0.11953658
0.073414512 -0.09106493 0.1196021
0.074059255 -0.09106493 0.1196021
0.069076478 -0.090990737 0.11868635
0.069722869 -0.090990737 0.11868635
0.070369251 -0.090990737 0.11868635
0.071015634 -0.090990737 0.11868635
0.071636058 -0.091066465 0.11875202
0.072308414 -0.090990737 0.11868635
0.072954789 -0.090990737 0.11868635
0.073601179 -0.090990737 0.11868635
0.074301369 -0.090839282 0.11855495
0.069251671 -0.090918869 0.11776827
0.069899701 -0.090918869 0.11776827
0.07054773 -0.090918869 0.11776827
0.071170017 -0.090994418 0.11783411
0.071817815 -0.090994418 0.11783411
0.072465606 -0.090994418 0.11783411
0.073113389 -0.090994418 0.11783411
0.07376118 -0.090994418 0.11783411
0.074408978 -0.090994418 0.11783411
0.069376811 -0.09100011 0.11697993
0.07002601 -0.09100011 0.11697993
0.070649713 -0.091075495 0.11704594
0.071298666 -0.091075495 0.11704594
0.071947634 -0.091075495 0.11704594
0.072596595 -0.091075495 0.11704594
0.073219113 -0.091150895 0.11711198
0.073867843 -0.091150895 0.11711198
0.074516572 -0.091150895 0.11711198
0.068901166 -0.090932548 0.11605754
0.069526978 -0.091007754 0.11612374
0.070177577 -0.091007754 0.11612374
0.070802689 -0.09108299 0.11618991
0.07145305 -0.09108299 0.11618991
0.072077453 -0.091158226 0.11625612
0.072727591 -0.091158226 0.11625612
0.073351286 -0.091233462 0.11632229
0.074001186 -0.091233462 0.11632229
0.074651085 -0.091233462 0.11632229
0.069074728 -0.090867266 0.11513284
0.069702171 -0.090942353 0.11519919
0.070329152 -0.09101741 0.11526555
0.070981167 -0.09101741 0.11526555
0.071555965 -0.091242626 0.11546463
0.072181314 -0.091317669 0.11553097
0.072832383 -0.091317669 0.11553097
0.07345701 -0.091392756 0.11559734
0.074081182 -0.091467813 0.11566368
0.07473179 -0.091467813 0.11566368
0.068594173 -0.090804338 0.11420581
0.069173895 -0.091029063 0.11440539
0.069827311 -0.091029063 0.11440539
0.070455462 -0.091103956 0.1144719
0.071083143 -0.091178864 0.11453845
0.071710356 -0.091253743 0.11460495
0.072337106 -0.091328636 0.11467147
0.072963379 -0.091403559 0.11473799
0.073589183 -0.091478452 0.11480451
0.07418786 -0.091628253 0.11493756
0.068766087 -0.090743735 0.11327648
0.069372252 -0.090893209 0.11340986
0.07002753 -0.090893209 0.11340986
0.070632294 -0.091042683 0.11354323
0.071236119 -0.091192141 0.11367661
0.071864739 -0.09126687 0.11374329
0.072440952 -0.091491088 0.11394337
0.073041968 -0.091640562 0.11407673
0.07366848 -0.091715276 0.11414342
0.07429453 -0.091790006 0.1142101
0.068913437 -0.090760022 0.11241169
0.069521002 -0.090909168 0.1125454
0.070177697 -0.090909168 0.1125454
0.070783868 -0.091058284 0.11267908
0.07141459 -0.091132864 0.11274594
0.071967654 -0.091431141 0.11301337
0.072596744 -0.091505706 0.1130802
0.073199168 -0.091654837 0.11321391
0.07382708 -0.091729403 0.11328076
0.069036238 -0.090852663 0.1116119
0.069694564 -0.090852663 0.1116119
0.070327863 -0.090927079 0.11167893
0.070935436 -0.091075897 0.11181296
0.071542069 -0.0912247 0.11194701
0.072147764 -0.091373518 0.11208105
0.072726563 -0.091596708 0.1122821
0.07335636 -0.091671109 0.11234911
0.073959239 -0.091819927 0.11248314
0.069183588 -0.090872765 0.1107433
0.069818534 -0.090947002 0.11081047
0.070427977 -0.091095477 0.11094485
0.071061745 -0.09116973 0.11101204
0.071695052 -0.091243953 0.11107922
0.072276421 -0.091466665 0.11128075
0.07290832 -0.091540903 0.11134796
0.073513545 -0.091689393 0.11148232
0.069355503 -0.09082076 0.10980535
0.070016876 -0.09082076 0.10980535
0.07060317 -0.091042981 0.11000741
0.07121332 -0.091191128 0.11014211
0.071822532 -0.091339275 0.11027679
0.072456531 -0.091413334 0.11034414
0.073038138 -0.09163557 0.1105462
0.069010362 -0.09032765 0.10845999
0.069601104 -0.09054935 0.10866253
0.070240021 -0.090623289 0.10873005
0.070828415 -0.090844989 0.1089326
0.071415417 -0.091066688 0.10913514
0.072026506 -0.091214508 0.10927017
0.072662368 -0.091288432 0.10933769
0.073245853 -0.091510147 0.10954024
0.069180638 -0.090281278 0.10751642
0.06984669 -0.090281278 0.10751642
0.07043837 -0.090502486 0.10771945
0.071053669 -0.090649977 0.10785481
0.071617506 -0.090944946 0.10812555
0.072230466 -0.091092438 0.1082609
0.072868221 -0.091166154 0.10832858
0.07342761 -0.091461137 0.10859931
0.069350913 -0.09023723 0.10657053
0.069994047 -0.090310797 0.10663836
0.070661515 -0.090310797 0.10663836
0.071228862 -0.090605095 0.10690975
0.071819603 -0.090825826 0.10711327
0.07243444 -0.09097296 0.10724898
0.073074058 -0.091046557 0.10731682
0.073713221 -0.091120124 0.10738467
0.069521189 -0.090195507 0.10562231
0.070141405 -0.090342298 0.10575831
0.070810273 -0.090342298 0.10575831
0.071404055 -0.090562537 0.10596237
0.0720217 -0.090709358 0.1060984
0.072663903 -0.090782762 0.10616638
0.073279902 -0.090929583 0.10630241
0.069044575 -0.090082839 0.10460359
0.069667138 -0.090229318 0.10473993
0.07031332 -0.090302557 0.10480811
0.070983827 -0.090302557 0.10480811
0.071579248 -0.090522304 0.10501266
0.072198533 -0.090668797 0.10514902
0.07286787 -0.090668797 0.10514902
0.073511474 -0.090742037 0.10521717
0.069165029 -0.09019205 0.10378726
0.069813095 -0.090265125 0.10385559
0.070460677 -0.090338215 0.10392395
0.071132585 -0.090338215 0.10392395
0.071804494 -0.090338215 0.10392395
0.07240063 -0.090557456 0.10412897
0.073046349 -0.090630502 0.10419729
0.073717318 -0.090630502 0.10419729
0.068659648 -0.090157107 0.10283226
0.069309577 -0.090230018 0.10290076
0.069959037 -0.090302944 0.10296927
0.070657149 -0.090230018 0.10290076
0.071281351 -0.090375856 0.10303777
0.071954668 -0.090375856 0.10303777
0.072627984 -0.090375856 0.10303777
0.073275812 -0.090448752 0.10310628
0.07394889 -0.090448752 0.10310628
0.068778932 -0.090269968 0.10201228
0.069454126 -0.090269968 0.10201228
0.070104994 -0.09034273 0.10208096
0.070779949 -0.09034273 0.10208096
0.071454905 -0.09034273 0.10208096
0.072129861 -0.09034273 0.10208096
0.072779559 -0.090415463 0.10214961
0.073454283 -0.090415463 0.10214961
0.074129 -0.090415463 0.10214961
0.068898216 -0.090384498 0.10119063
0.06957458 -0.090384498 0.10119063
0.070250943 -0.090384498 0.10119063
0.070902742 -0.090457097 0.10125948
0.07155408 -0.090529665 0.10132831
0.072254993 -0.090457097 0.10125948
0.072931126 -0.090457097 0.10125948
0.073581763 -0.090529665 0.10132831
0.074257657 -0.090529665 0.10132831
0.0690175 -0.090500683 0.10036735
0.069695033 -0.090500683 0.10036735
0.070372567 -0.090500683 0.10036735
0.071025535 -0.090573102 0.10043637
0.071702838 -0.090573102 0.10043637
0.072355106 -0.090645522 0.10050537
0.073057435 -0.090573102 0.10043637
0.073709242 -0.090645522 0.10050537
0.074412033 -0.090573102 0.10043637
0.068434462 -0.090690777 0.099611565
0.069112927 -0.090690777 0.099611565
0.069791399 -0.090690777 0.099611565
0.07049419 -0.090618521 0.099542424
0.071148336 -0.090690777 0.099611565
0.071802013 -0.090763032 0.099680766
0.072480246 -0.090763032 0.099680766
0.073158488 -0.090763032 0.099680766
0.073862225 -0.090690777 0.099611565
0.07454069 -0.090690777 0.099611565
0.068505324 -0.090954274 0.098923817
0.069184497 -0.090954274 0.098923817
0.069911852 -0.09081009 0.098785147
0.070591494 -0.09081009 0.098785147
0.071271136 -0.09081009 0.098785147
0.071876399 -0.091026351 0.098993152
0.07258036 -0.090954274 0.098923817
0.073259532 -0.090954274 0.098923817
0.073913217 -0.091026351 0.098993152
0.074617878 -0.090954274 0.098923817
0.068623438 -0.091074929 0.098096073
0.069303781 -0.091074929 0.098096073
0.070032306 -0.090931088 0.09795706
0.070664465 -0.091074929 0.098096073
0.071393929 -0.090931088 0.09795706
0.07202515 -0.091074929 0.098096073
0.072705492 -0.091074929 0.098096073
0.073385842 -0.091074929 0.098096073
0.074066184 -0.091074929 0.098096073
0.074746527 -0.091074929 0.098096073
0.068106808 -0.091053739 0.097127318
0.068741545 -0.091197252 0.097266644
0.069470771 -0.091053739 0.097127318
0.07015276 -0.091053739 0.097127318
0.070834741 -0.091053739 0.097127318
0.071516722 -0.091053739 0.097127318
0.07214912 -0.091197252 0.097266644
0.072880685 -0.091053739 0.097127318
0.073562674 -0.091053739 0.097127318
0.074193664 -0.091197252 0.097266644
0.074875176 -0.091197252 0.097266644
0.068954147 -0.091034859 0.096156254
0.069637768 -0.091034859 0.096156254
0.070321389 -0.091034859 0.096156254
0.070980698 -0.09110643 0.096226066
0.071639523 -0.091178015 0.096295893
0.07234747 -0.09110643 0.096226066
0.073005833 -0.091178015 0.096295893
0.073688991 -0.091178015 0.096295893
0.07437215 -0.091178015 0.096295893
0.069095887 -0.091089696 0.095252857
0.069780916 -0.091089696 0.095252857
0.07044185 -0.091161117 0.095322847
0.071126647 -0.091161117 0.095322847
0.07178688 -0.091232553 0.095392853
0.072471432 -0.091232553 0.095392853
0.073155992 -0.091232553 0.095392853
0.073840559 -0.091232553 0.095392853
0.074474126 -0.091375396 0.095532864
0.068597965 -0.091004029 0.094207138
0.069284871 -0.091004029 0.094207138
0.06997177 -0.091004029 0.094207138
0.070586391 -0.091217816 0.094417647
0.071248271 -0.091289058 0.094487816
0.071909674 -0.091360331 0.094557986
0.072595403 -0.091360331 0.094557986
0.073306166 -0.091289058 0.094487816
0.073966861 -0.091360331 0.094557986
0.074652597 -0.091360331 0.094557986
0.068738289 -0.091063201 0.093299463
0.069426604 -0.091063201 0.093299463
0.070114903 -0.091063201 0.093299463
0.070779122 -0.091134295 0.093369782
0.071442872 -0.091205388 0.09344013
0.072057031 -0.091418669 0.093651101
0.072744168 -0.091418669 0.093651101
0.073431298 -0.091418669 0.093651101
0.074093178 -0.091489732 0.093721434
0.068258375 -0.090911582 0.092178285
0.068948783 -0.090911582 0.092178285
0.069662832 -0.090840638 0.092107788
0.070305765 -0.090982497 0.092248783
0.070947759 -0.091124356 0.092389777
0.071613155 -0.091195285 0.092460245
0.07225351 -0.091337115 0.092601255
0.072942518 -0.091337115 0.092601255
0.073631525 -0.091337115 0.092601255
0.074244745 -0.091549918 0.092812747
0.068443611 -0.090833694 0.091124788
0.069135897 -0.090833694 0.091124788
0.06982819 -0.090833694 0.091124788
0.070520476 -0.090833694 0.091124788
0.071164578 -0.09097521 0.091266125
0.071832076 -0.091045976 0.091336772
0.072425425 -0.091329008 0.091619417
0.073116072 -0.091329008 0.091619417
0.073781684 -0.091399774 0.091690093
0.074446842 -0.091470525 0.091760755
0.069252834 -0.090970248 0.090281144
0.069969922 -0.090899646 0.090210304
0.070639752 -0.090970248 0.090281144
0.071333215 -0.090970248 0.090281144
0.071978025 -0.091111436 0.090422809
0.072621897 -0.09125264 0.090564445
0.073289625 -0.091323212 0.09063527
0.073931858 -0.0914644 0.090776935
0.074598417 -0.091535002 0.090847746
0.069393165 -0.091038018 0.089364842
0.070088036 -0.091038018 0.089364842
0.0707829 -0.091038018 0.089364842
0.071477763 -0.091038018 0.089364842
0.072148301 -0.091108456 0.089435846
0.072818369 -0.091178879 0.089506805
0.073463179 -0.09131974 0.089648798
0.074132077 -0.091390163 0.089719787
0.069603667 -0.090896994 0.088233069
0.070324257 -0.090826735 0.088161916
0.07102146 -0.090826735 0.088161916
0.07171867 -0.090826735 0.088161916
0.072391555 -0.090896994 0.088233069
0.073063962 -0.090967268 0.088304237
0.073735908 -0.091037527 0.088375375
0.069884323 -0.090548664 0.08688435
0.070678599 -0.090268269 0.086599052
0.071283884 -0.090548664 0.08688435
0.071959578 -0.090618744 0.086955667
0.072610483 -0.09075895 0.087098315
0.073284999 -0.090829059 0.087169647
0.073959053 -0.090899155 0.087240964
0.070211753 -0.090064436 0.085388675
0.070962064 -0.089924589 0.085245684
0.071570165 -0.090204298 0.085531667
0.072176397 -0.090484008 0.085817605
0.072878055 -0.090484008 0.085817605
0.073506027 -0.090693831 0.086032078
0.070469029 -0.089794159 0.084103331
0.071174666 -0.089794159 0.084103331
0.07176102 -0.09014298 0.0844616
0.072393216 -0.090352282 0.084676549
0.073072657 -0.090422049 0.084748223
0.073727064 -0.090561569 0.084891543
0.06951616 -0.088901088 0.082167953
0.070133857 -0.089179501 0.082455248
0.070749685 -0.089457914 0.082742527
0.07143452 -0.089527503 0.082814336
0.072071165 -0.089736298 0.083029792
0.072850943 -0.089527503 0.082814336
0.073559158 -0.089527503 0.082814336
0 0 0 1 0 0 0 1 0 0 0 1 0 0 0 0 0 488 1 0 0
