ply
format ascii 1.0
comment PCL generated
element vertex 541
property float x
property float y
property float z
element camera 1
property float view_px
property float view_py
property float view_pz
property float x_axisx
property float x_axisy
property float x_axisz
property float y_axisx
property float y_axisy
property float y_axisz
property float z_axisx
property float z_axisy
property float z_axisz
property float focal
property float scalex
property float scaley
property float centerx
property float centery
property int viewportx
property int viewporty
property float k1
property float k2
end_header
0.069137327 -0.088509321 0.13149148
0.069766618 -0.088509321 0.13149148
0.070395909 -0.088509321 0.13149148
0.070998751 -0.088588044 0.13155422
0.067828223 -0.089111388 0.13117227
0.068457045 -0.089111388 0.13117227
0.069111593 -0.089032859 0.1311094
0.069740646 -0.089032859 0.1311094
0.070369706 -0.089032859 0.1311094
0.070972323 -0.089111388 0.13117227
0.071574479 -0.089189947 0.13123517
0.072176166 -0.089268491 0.13129804
0.067174368 -0.089634418 0.13079068
0.067802958 -0.089634418 0.13079068
0.068431549 -0.089634418 0.13079068
0.069085866 -0.089556038 0.13072763
0.069714688 -0.089556038 0.13072763
0.070343509 -0.089556038 0.13072763
0.070945889 -0.089634418 0.13079068
0.071547814 -0.089712799 0.13085373
0.072176166 -0.089712799 0.13085373
0.072750241 -0.089869559 0.13097982
0.066496201 -0.090235338 0.13047263
0.067124315 -0.090235338 0.13047263
0.067752436 -0.090235338 0.13047263
0.068406053 -0.090157107 0.13040942
0.069060132 -0.090078905 0.13034621
0.069688715 -0.090078905 0.13034621
0.070317306 -0.090078905 0.13034621
0.070919462 -0.090157107 0.13040942
0.071547814 -0.090157107 0.13040942
0.072149262 -0.090235338 0.13047263
0.072723113 -0.090391725 0.13059902
0.073323391 -0.090469956 0.13066225
0.065794408 -0.090913609 0.1302186
0.066446617 -0.090835541 0.13015521
0.067099288 -0.090757519 0.13009186
0.067727178 -0.090757519 0.13009186
0.068406053 -0.090601414 0.1299651
0.069034405 -0.090601414 0.1299651
0.069662757 -0.090601414 0.1299651
0.070291109 -0.090601414 0.1299651
0.070893019 -0.090679482 0.13002849
0.071521141 -0.090679482 0.13002849
0.072122365 -0.090757519 0.13009186
0.072723113 -0.090835541 0.13015521
0.073323391 -0.090913609 0.1302186
0.073923208 -0.090991646 0.13028197
0.065794408 -0.091357261 0.12977494
0.066446617 -0.091279358 0.12971139
0.067074262 -0.091279358 0.12971139
0.067701921 -0.091279358 0.12971139
0.068355061 -0.091201499 0.12964788
0.069008671 -0.091123626 0.12958434
0.069662757 -0.091045737 0.12952079
0.070264906 -0.091123626 0.12958434
0.070866592 -0.091201499 0.12964788
0.071521141 -0.091123626 0.12958434
0.072095469 -0.091279358 0.12971139
0.072695971 -0.091357261 0.12977494
0.073323391 -0.091357261 0.12977494
0.073923208 -0.091435134 0.12983848
0.07452254 -0.091513023 0.12990203
0.065094016 -0.092034042 0.12952241
0.065745287 -0.091956347 0.12945871
0.066397026 -0.091878608 0.12939501
0.067049235 -0.091800898 0.12933129
0.067676648 -0.091800898 0.12933129
0.068355061 -0.091645479 0.1292039
0.069008671 -0.09156777 0.1291402
0.069636784 -0.09156777 0.1291402
0.070264906 -0.09156777 0.1291402
0.070866592 -0.091645479 0.1292039
0.071494475 -0.091645479 0.1292039
0.072095469 -0.091723174 0.12926759
0.072723113 -0.091723174 0.12926759
0.073323391 -0.091800898 0.12933129
0.073950805 -0.091800898 0.12933129
0.074550383 -0.091878608 0.12939501
0.06572073 -0.092477202 0.12907927
0.066372231 -0.092399657 0.1290154
0.067024209 -0.092322096 0.12895152
0.067676648 -0.092244551 0.12888765
0.068329573 -0.09216699 0.12882377
0.068982944 -0.092089459 0.12875992
0.069610827 -0.092089459 0.12875992
0.070264906 -0.092011914 0.12869605
0.070893019 -0.092011914 0.12869605
0.071494475 -0.092089459 0.12875992
0.072122365 -0.092089459 0.12875992
0.072695971 -0.092244551 0.12888765
0.073323391 -0.092244551 0.12888765
0.073950805 -0.092244551 0.12888765
0.074550383 -0.092322096 0.12895152
0.065696165 -0.09299776 0.12870017
0.066372231 -0.092842981 0.12857208
0.067024209 -0.092765585 0.12850803
0.067651391 -0.092765585 0.12850803
0.068329573 -0.092610806 0.12837996
0.068982944 -0.092533439 0.12831593
0.069636784 -0.092456073 0.1282519
0.070291109 -0.092378676 0.12818785
0.070919462 -0.092378676 0.12818785
0.071547814 -0.092378676 0.12818785
0.072122365 -0.092533439 0.12831593
0.072750241 -0.092533439 0.12831593
0.073350765 -0.092610806 0.12837996
0.073978417 -0.092610806 0.12837996
0.074578218 -0.092688203 0.128444
0.066322647 -0.093440741 0.12825717
0.066974156 -0.093363509 0.12819296
0.067651391 -0.093209058 0.12806454
0.068329573 -0.093054622 0.12793614
0.069008671 -0.092900217 0.12780775
0.069688715 -0.092745766 0.12767935
0.070317306 -0.092745766 0.12767935
0.070972323 -0.092668533 0.12761512
0.071574479 -0.092745766 0.12767935
0.072203062 -0.092745766 0.12767935
0.072777376 -0.092900217 0.12780775
0.073378131 -0.092977419 0.12787196
0.074006014 -0.092977419 0.12787196
0.066322647 -0.093883723 0.12781419
0.067024209 -0.093652546 0.12762107
0.067676648 -0.093575507 0.1275567
0.068355061 -0.0934214 0.12742797
0.069034405 -0.093267292 0.12729923
0.069740646 -0.09303613 0.12710613
0.070343509 -0.093113184 0.12717049
0.07105162 -0.092882037 0.12697738
0.071681149 -0.092882037 0.12697738
0.072256871 -0.09303613 0.12710613
0.072858788 -0.093113184 0.12717049
0.07343287 -0.093267292 0.12729923
0.074061222 -0.093267292 0.12729923
0.067024209 -0.094096035 0.12717758
0.067777701 -0.093711615 0.12685493
0.068431549 -0.093634725 0.12679039
0.069188789 -0.093250275 0.12646769
0.069896437 -0.09301962 0.12627411
0.070526898 -0.09301962 0.12627411
0.07121022 -0.09286584 0.12614504
0.071787819 -0.09301962 0.12627411
0.072364479 -0.0931734 0.12640318
0.072940193 -0.09332718 0.12653224
0.073514976 -0.093480945 0.12666132
0.074116431 -0.093557835 0.12672584
0.067828223 -0.09400247 0.1262812
0.068584524 -0.09361887 0.12595771
0.069317438 -0.093311965 0.12569889
0.070026256 -0.093081817 0.12550482
0.070684098 -0.093005091 0.12544011
0.071368814 -0.092851654 0.12531072
0.071974486 -0.09292838 0.1253754
0.072552785 -0.093081817 0.12550482
0.073103003 -0.093311965 0.12569889
0.073679194 -0.093465418 0.12582831
0.069754846 -0.092456669 0.12415007
0.070363797 -0.092533216 0.12421492
0.070867486 -0.092915997 0.12453926
0.071474545 -0.092992559 0.12460414
0.07224115 -0.092609778 0.1242798
0.072794899 -0.09283945 0.12447439
0.073374361 -0.092992559 0.12460414
0.070166528 -0.091683373 0.12266064
0.070831157 -0.091606975 0.12259559
0.071391448 -0.091836169 0.12279068
0.071950339 -0.092065319 0.12298578
0.072614498 -0.091988921 0.12292074
0.073225319 -0.092065319 0.12298578
0.070475303 -0.09122026 0.12142666
0.071116768 -0.09122026 0.12142666
0.071679637 -0.091448948 0.12162226
0.072320394 -0.091448948 0.12162226
0.072961167 -0.091448948 0.12162226
0.070706874 -0.090989307 0.12038481
0.071298517 -0.091141433 0.12051554
0.071994029 -0.090989307 0.12038481
0.072637595 -0.090989307 0.12038481
0.073254503 -0.091065377 0.12045018
0.07019078 -0.09106493 0.1196021
0.07086125 -0.090989038 0.11953658
0.071558163 -0.09083724 0.11940552
0.072125018 -0.09106493 0.1196021
0.072796188 -0.090989038 0.11953658
0.073414512 -0.09106493 0.1196021
0.074059255 -0.09106493 0.1196021
0.069722869 -0.090990737 0.11868635
0.070394747 -0.090915009 0.11862066
0.071067095 -0.090839282 0.11855495
0.071662024 -0.090990737 0.11868635
0.072282217 -0.091066465 0.11875202
0.072928362 -0.091066465 0.11875202
0.073574513 -0.091066465 0.11875202
0.074247569 -0.090990737 0.11868635
0.069301724 -0.090767741 0.11763655
0.069950223 -0.090767741 0.11763655
0.070573226 -0.09084329 0.11770241
0.071195744 -0.090918869 0.11776827
0.071869738 -0.09084329 0.11770241
0.072465606 -0.090994418 0.11783411
0.07306052 -0.091145545 0.11796583
0.073707849 -0.091145545 0.11796583
0.07435517 -0.091145545 0.11796583
0.075002491 -0.091145545 0.11796583
0.07015232 -0.090623111 0.11664979
0.070751697 -0.09077391 0.11678185
0.071401589 -0.09077391 0.11678185
0.071999565 -0.090924695 0.11691388
0.072596595 -0.091075495 0.11704594
0.073219113 -0.091150895 0.11711198
0.073867843 -0.091150895 0.11711198
0.074516572 -0.091150895 0.11711198
0.075165294 -0.091150895 0.11711198
0.069248281 -0.089879289 0.11513087
0.06977725 -0.090255469 0.11546184
0.070379682 -0.090405911 0.11559419
0.070981167 -0.090556368 0.11572659
0.071555965 -0.090782076 0.11592516
0.072129384 -0.091007754 0.11612374
0.072727591 -0.091158226 0.11625612
0.073351286 -0.091233462 0.11632229
0.074001186 -0.091233462 0.11632229
0.07457038 -0.09145917 0.11652087
0.075246707 -0.091383904 0.11645468
0.069036238 -0.088990629 0.11347394
0.069471426 -0.089666218 0.11407115
0.069952451 -0.090191677 0.11453563
0.070531249 -0.090416893 0.11473471
0.071108639 -0.090642095 0.11493376
0.071658894 -0.090942353 0.11519919
0.072233245 -0.091167539 0.11539826
0.072832383 -0.091317669 0.11553097
0.07345701 -0.091392756 0.11559734
0.074081182 -0.091467813 0.11566368
0.074704893 -0.09154287 0.11573003
0.069109917 -0.089231461 0.11280887
0.069545805 -0.08990556 0.11340757
0.07010261 -0.090205148 0.11367366
0.070657551 -0.090504766 0.11393975
0.071261622 -0.090654537 0.11407277
0.071787544 -0.091029063 0.11440539
0.072363064 -0.091253743 0.11460495
0.072989583 -0.091328636 0.11467147
0.073589183 -0.091478452 0.11480451
0.07418786 -0.091628253 0.11493756
0.074812494 -0.091703162 0.11500409
0.068669811 -0.089024842 0.11174268
0.069183588 -0.089473262 0.1121428
0.069719359 -0.089846939 0.11247624
0.07022775 -0.090295345 0.11287637
0.070809126 -0.090519547 0.11307642
0.071389101 -0.090743735 0.11327648
0.071941927 -0.091042683 0.11354323
0.072518855 -0.09126687 0.11374329
0.073094368 -0.091491088 0.11394337
0.073694907 -0.091640562 0.11407673
0.074347854 -0.091640562 0.11407673
0.074947007 -0.091790006 0.1142101
0.068177305 -0.088970363 0.11080723
0.068718463 -0.089343205 0.11114147
0.06923271 -0.089790627 0.11154261
0.069768943 -0.090163469 0.11187686
0.070352897 -0.090387166 0.1120774
0.070935436 -0.090610877 0.11227798
0.071516581 -0.090834588 0.11247854
0.072096311 -0.091058284 0.11267908
0.072648674 -0.091356561 0.11294651
0.07325156 -0.091505706 0.1130802
0.073853508 -0.091654837 0.11321391
0.074481197 -0.091729403 0.11328076
0.068201393 -0.089364618 0.11027156
0.068742782 -0.08973664 0.11060664
0.069281831 -0.090108648 0.11094174
0.069892913 -0.090257466 0.11107577
0.070503056 -0.090406269 0.11120979
0.071061745 -0.09070389 0.11147788
0.07164406 -0.090927079 0.11167893
0.072199225 -0.0912247 0.11194701
0.072778493 -0.09144792 0.11214805
0.07340876 -0.091522306 0.11221506
0.074038535 -0.091596708 0.1122821
0.067681521 -0.089388013 0.10939963
0.068249576 -0.089684978 0.10966836
0.068840086 -0.089907676 0.10986991
0.069404624 -0.090204641 0.11013864
0.070016876 -0.090353101 0.11027302
0.07060317 -0.090575814 0.11047457
0.071188062 -0.090798512 0.11067611
0.071797036 -0.090947002 0.11081047
0.072353609 -0.091243953 0.11107922
0.072934285 -0.091466665 0.11128075
0.073565945 -0.091540903 0.11134796
0.067776948 -0.089561537 0.1086604
0.068370037 -0.089783743 0.10886246
0.068937384 -0.090080038 0.10913184
0.069551982 -0.090228185 0.10926655
0.070165642 -0.090376332 0.10940126
0.070753336 -0.090598539 0.10960329
0.071364895 -0.090746686 0.10973799
0.071924515 -0.091042981 0.11000741
0.072533719 -0.091191128 0.11014211
0.073142 -0.091339275 0.11027679
0.073723137 -0.091561481 0.11047885
0.068490483 -0.089884207 0.10805489
0.069107659 -0.090032011 0.10818993
0.069723897 -0.090179831 0.10832496
0.070339195 -0.09032765 0.10845999
0.070928529 -0.09054935 0.10866253
0.071541727 -0.090697169 0.10879757
0.072102986 -0.090992808 0.10906763
0.07271383 -0.091140628 0.10920265
0.073349714 -0.091214508 0.10927017
0.068659119 -0.089838833 0.10711032
0.069253616 -0.09006004 0.10731336
0.069871254 -0.090207532 0.10744873
0.070512749 -0.090281278 0.10751642
0.071103722 -0.090502486 0.10771945
0.071743816 -0.090576246 0.10778713
0.072332457 -0.090797469 0.10799018
0.072945409 -0.090944946 0.10812555
0.073583394 -0.091018677 0.1081932
0.068134807 -0.089869335 0.10623127
0.068755485 -0.090016484 0.10636698
0.069399558 -0.090090081 0.10643482
0.070067726 -0.090090081 0.10643482
0.070686303 -0.09023723 0.10657053
0.071278915 -0.090457946 0.10677405
0.071920656 -0.090531513 0.10684189
0.07256192 -0.090605095 0.10690975
0.07384304 -0.090752259 0.10704544
0.067654915 -0.089755028 0.10521422
0.068230227 -0.090048671 0.10548629
0.068875939 -0.090122074 0.10555428
0.069545515 -0.090122074 0.10555428
0.070190519 -0.090195507 0.10562231
0.070884652 -0.090122074 0.10555428
0.071504168 -0.09026891 0.1056903
0.072097488 -0.090489119 0.10589434
0.072740391 -0.090562537 0.10596237
0.074024789 -0.090709358 0.1060984
0.067773022 -0.089863107 0.10439906
0.068373367 -0.090082839 0.10460359
0.069020487 -0.090156063 0.10467175
0.069691464 -0.090156063 0.10467175
0.070337877 -0.090229318 0.10473993
0.071033418 -0.090156063 0.10467175
0.071654335 -0.090302557 0.10480811
0.072299577 -0.090375811 0.10487629
0.072969854 -0.090375811 0.10487629
0.073562935 -0.090595543 0.10508083
0.074232511 -0.090595543 0.10508083
0.068492651 -0.09019205 0.10378726
0.069165029 -0.09019205 0.10378726
0.069837414 -0.09019205 0.10378726
0.070509791 -0.09019205 0.10378726
0.071182176 -0.09019205 0.10378726
0.071854554 -0.09019205 0.10378726
0.072526939 -0.09019205 0.10378726
0.073173828 -0.090265125 0.10385559
0.073820233 -0.090338215 0.10392395
0.074518122 -0.090265125 0.10385559
0.068635792 -0.090230018 0.10290076
0.069309577 -0.090230018 0.10290076
0.069959037 -0.090302944 0.10296927
0.070632592 -0.090302944 0.10296927
0.071330935 -0.090230018 0.10290076
0.072029747 -0.090157107 0.10283226
0.072703771 -0.090157107 0.10283226
0.0733523 -0.090230018 0.10290076
0.074051805 -0.090157107 0.10283226
0.074725829 -0.090157107 0.10283226
0.068755075 -0.09034273 0.10208096
0.069405943 -0.090415463 0.10214961
0.070080668 -0.090415463 0.10214961
0.070779949 -0.09034273 0.10208096
0.071479701 -0.090269968 0.10201228
0.072154887 -0.090269968 0.10201228
0.072880603 -0.090124488 0.10187493
0.073505282 -0.090269968 0.10201228
0.074180469 -0.090269968 0.10201228
0.068874359 -0.090457097 0.10125948
0.069550484 -0.090457097 0.10125948
0.070226617 -0.090457097 0.10125948
0.070927307 -0.090384498 0.10119063
0.071603663 -0.090384498 0.10119063
0.072305053 -0.09031193 0.10112181
0.072981648 -0.09031193 0.10112181
0.07365825 -0.09031193 0.10112181
0.074334845 -0.09031193 0.10112181
0.07506337 -0.090166762 0.10098413
0.0690175 -0.090500683 0.10036735
0.069670938 -0.090573102 0.10043637
0.070372567 -0.090500683 0.10036735
0.0710501 -0.090500683 0.10036735
0.071727633 -0.090500683 0.10036735
0.072430186 -0.090428278 0.10029835
0.073107958 -0.090428278 0.10029835
0.07378573 -0.090428278 0.10029835
0.074463494 -0.090428278 0.10029835
0.075193189 -0.090283453 0.10016035
0.069112927 -0.090690777 0.099611565
0.069791399 -0.090690777 0.099611565
0.07049419 -0.090618521 0.099542424
0.071172893 -0.090618521 0.099542424
0.071826808 -0.090690777 0.099611565
0.072530299 -0.090618521 0.099542424
0.07320901 -0.090618521 0.099542424
0.073887713 -0.090618521 0.099542424
0.074566416 -0.090618521 0.099542424
0.075271092 -0.090546265 0.099473238
0.068505324 -0.090954274 0.098923817
0.069184497 -0.090954274 0.098923817
0.06993594 -0.090738028 0.098715812
0.070591494 -0.09081009 0.098785147
0.071271136 -0.09081009 0.098785147
0.071950771 -0.09081009 0.098785147
0.072630413 -0.09081009 0.098785147
0.073310055 -0.09081009 0.098785147
0.073989704 -0.09081009 0.098785147
0.074695066 -0.090738028 0.098715812
0.075374946 -0.090738028 0.098715812
0.068623438 -0.091074929 0.098096073
0.069303781 -0.091074929 0.098096073
0.070032306 -0.090931088 0.09795706
0.070713118 -0.090931088 0.09795706
0.071393929 -0.090931088 0.09795706
0.072074741 -0.090931088 0.09795706
0.072705492 -0.091074929 0.098096073
0.073436365 -0.090931088 0.09795706
0.074117184 -0.090931088 0.09795706
0.074797988 -0.090931088 0.09795706
0.068788789 -0.091053739 0.097127318
0.069470771 -0.091053739 0.097127318
0.070176847 -0.090981975 0.097057641
0.070859075 -0.090981975 0.097057641
0.071541287 -0.090981975 0.097057641
0.072198704 -0.091053739 0.097127318
0.072830632 -0.091197252 0.097266644
0.073562674 -0.091053739 0.097127318
0.074244663 -0.091053739 0.097127318
0.074926637 -0.091053739 0.097127318
0.068930529 -0.09110643 0.096226066
0.069637768 -0.091034859 0.096156254
0.070321389 -0.091034859 0.096156254
0.070980698 -0.09110643 0.096226066
0.071639523 -0.091178015 0.096295893
0.072322682 -0.091178015 0.096295893
0.073005833 -0.091178015 0.096295893
0.073688991 -0.091178015 0.096295893
0.074321151 -0.091321185 0.096435577
0.068410859 -0.091089696 0.095252857
0.069072269 -0.091161117 0.095322847
0.069757059 -0.091161117 0.095322847
0.07044185 -0.091161117 0.095322847
0.071102321 -0.091232553 0.095392853
0.07178688 -0.091232553 0.095392853
0.072421849 -0.091375396 0.095532864
0.073105939 -0.091375396 0.095532864
0.073790029 -0.091375396 0.095532864
0.074474126 -0.091375396 0.095532864
0.068527795 -0.091217816 0.094417647
0.069214001 -0.091217816 0.094417647
0.069900192 -0.091217816 0.094417647
0.070586391 -0.091217816 0.094417647
0.071248271 -0.091289058 0.094487816
0.071909674 -0.091360331 0.094557986
0.072595403 -0.091360331 0.094557986
0.073281132 -0.091360331 0.094557986
0.073966861 -0.091360331 0.094557986
0.074652597 -0.091360331 0.094557986
0.068691514 -0.091205388 0.09344013
0.069379352 -0.091205388 0.09344013
0.070091054 -0.091134295 0.093369782
0.070779122 -0.091134295 0.093369782
0.071442872 -0.091205388 0.09344013
0.072057031 -0.091418669 0.093651101
0.07281854 -0.091205388 0.09344013
0.073456332 -0.091347545 0.093580768
0.0741437 -0.091347545 0.093580768
0.068855241 -0.091195285 0.092460245
0.069568336 -0.091124356 0.092389777
0.070258051 -0.091124356 0.092389777
0.070995942 -0.090982497 0.092248783
0.071637474 -0.091124356 0.092389777
0.072302625 -0.091195285 0.092460245
0.073016897 -0.091124356 0.092389777
0.073681578 -0.091195285 0.092460245
0.06904234 -0.091116741 0.091407448
0.069780938 -0.09097521 0.091266125
0.070520476 -0.090833694 0.091124788
0.071212761 -0.090833694 0.091124788
0.071856402 -0.09097521 0.091266125
0.072499096 -0.091116741 0.091407448
0.073215246 -0.091045976 0.091336772
0.073881797 -0.091116741 0.091407448
0.069206059 -0.091111436 0.090422809
0.069946297 -0.090970248 0.090281144
0.070663616 -0.090899646 0.090210304
0.07135731 -0.090899646 0.090210304
0.072026677 -0.090970248 0.090281144
0.072671011 -0.091111436 0.090422809
0.073413588 -0.090970248 0.090281144
0.07405699 -0.091111436 0.090422809
0.069346391 -0.091178879 0.089506805
0.070088036 -0.091038018 0.089364842
0.0707829 -0.091038018 0.089364842
0.071477763 -0.091038018 0.089364842
0.072196953 -0.090967596 0.089293852
0.072892047 -0.090967596 0.089293852
0.073587142 -0.090967596 0.089293852
0.074232183 -0.091108456 0.089435846
0.070277013 -0.090967268 0.088304237
0.070973746 -0.090967268 0.088304237
0.071670488 -0.090967268 0.088304237
0.072391555 -0.090896994 0.088233069
0.073113084 -0.090826735 0.088161916
0.073785499 -0.090896994 0.088233069
0.070607729 -0.090478584 0.086813033
0.071307741 -0.090478584 0.086813033
0.071959578 -0.090618744 0.086955667
0.072659135 -0.090618744 0.086955667
0.073309556 -0.09075895 0.087098315
0.070962064 -0.089924589 0.085245684
0.071570165 -0.090204298 0.085531667
0.072176397 -0.090484008 0.085817605
0.072829403 -0.090623885 0.085960582
0.073506027 -0.090693831 0.086032078
0.071151048 -0.089863911 0.084174976
0.071784876 -0.090073213 0.084389955
0.072369121 -0.090422049 0.084748223
0.072999679 -0.090631336 0.084963188
0.07077308 -0.089388296 0.082670689
0.071458139 -0.089457914 0.082742527
0.072142728 -0.089527503 0.082814336
0.072778672 -0.089736298 0.083029792
0.073364556 -0.090084314 0.08338891
0.071741611 -0.089125633 0.081377745
0.07309185 -0.089333951 0.081593692
0.073851056 -0.089195073 0.081449732
0.07456208 -0.089195073 0.081449732
0 0 0 1 0 0 0 1 0 0 0 1 0 0 0 0 0 541 1 0 0
