ply
format ascii 1.0
comment PCL generated
element vertex 545
property float x
property float y
property float z
element camera 1
property float view_px
property float view_py
property float view_pz
property float x_axisx
property float x_axisy
property float x_axisz
property float y_axisx
property float y_axisy
property float y_axisz
property float z_axisx
property float z_axisy
property float z_axisz
property float focal
property float scalex
property float scaley
property float centerx
property float centery
property int viewportx
property int viewporty
property float k1
property float k2
end_header
0.06790401 -0.088430643 0.13142878
0.068533532 -0.088430643 0.13142878
0.069188789 -0.088351905 0.13136606
0.069792576 -0.088430643 0.13142878
0.070422105 -0.088430643 0.13142878
0.07105162 -0.088430643 0.13142878
0.071654484 -0.088509321 0.13149148
0.067249455 -0.0889543 0.13104652
0.067853481 -0.089032859 0.1311094
0.068508044 -0.0889543 0.13104652
0.069163054 -0.088875771 0.13098364
0.069792576 -0.088875771 0.13098364
0.070395909 -0.0889543 0.13104652
0.070998751 -0.089032859 0.1311094
0.071627811 -0.089032859 0.1311094
0.072229974 -0.089111388 0.13117227
0.072831646 -0.089189947 0.13123517
0.066595376 -0.089477658 0.13066459
0.067199402 -0.089556038 0.13072763
0.067853481 -0.089477658 0.13066459
0.068482541 -0.089477658 0.13066459
0.069137327 -0.089399278 0.13060154
0.069766618 -0.089399278 0.13060154
0.070369706 -0.089477658 0.13066459
0.070998751 -0.089477658 0.13066459
0.071627811 -0.089477658 0.13066459
0.072229974 -0.089556038 0.13072763
0.072804518 -0.089712799 0.13085373
0.07343287 -0.089712799 0.13085373
0.06657058 -0.090000674 0.130283
0.067199402 -0.090000674 0.130283
0.067828223 -0.090000674 0.130283
0.068482541 -0.089922473 0.13021979
0.069111593 -0.089922473 0.13021979
0.069740646 -0.089922473 0.13021979
0.070369706 -0.089922473 0.13021979
0.070972323 -0.090000674 0.130283
0.071601145 -0.090000674 0.130283
0.072176166 -0.090157107 0.13040942
0.072804518 -0.090157107 0.13040942
0.073405497 -0.090235338 0.13047263
0.074033618 -0.090235338 0.13047263
0.065917201 -0.090523377 0.12990174
0.066545784 -0.090523377 0.12990174
0.067149349 -0.090601414 0.1299651
0.067802958 -0.090523377 0.12990174
0.068431549 -0.090523377 0.12990174
0.069085866 -0.090445325 0.12983835
0.069714688 -0.090445325 0.12983835
0.070317306 -0.090523377 0.12990174
0.070945889 -0.090523377 0.12990174
0.071574479 -0.090523377 0.12990174
0.072149262 -0.090679482 0.13002849
0.072777376 -0.090679482 0.13002849
0.073378131 -0.090757519 0.13009186
0.073978417 -0.090835541 0.13015521
0.074578218 -0.090913609 0.1302186
0.06586808 -0.091123626 0.12958434
0.066520996 -0.091045737 0.12952079
0.067149349 -0.091045737 0.12952079
0.067777701 -0.091045737 0.12952079
0.068406053 -0.091045737 0.12952079
0.069060132 -0.090967864 0.12945725
0.069688715 -0.090967864 0.12945725
0.070317306 -0.090967864 0.12945725
0.070919462 -0.091045737 0.12952079
0.071574479 -0.090967864 0.12945725
0.072149262 -0.091123626 0.12958434
0.072777376 -0.091123626 0.12958434
0.073378131 -0.091201499 0.12964788
0.073978417 -0.091279358 0.12971139
0.074578218 -0.091357261 0.12977494
0.06586808 -0.09156777 0.1291402
0.066496201 -0.09156777 0.1291402
0.067149349 -0.091490045 0.12907648
0.067752436 -0.09156777 0.1291402
0.068406053 -0.091490045 0.12907648
0.069034405 -0.091490045 0.12907648
0.069662757 -0.091490045 0.12907648
0.070291109 -0.091490045 0.12907648
0.070919462 -0.091490045 0.12907648
0.071547814 -0.091490045 0.12907648
0.072176166 -0.091490045 0.12907648
0.072750241 -0.091645479 0.1292039
0.073378131 -0.091645479 0.1292039
0.074006014 -0.091645479 0.1292039
0.074606061 -0.091723174 0.12926759
0.065843523 -0.092089459 0.12875992
0.066471405 -0.092089459 0.12875992
0.067124315 -0.092011914 0.12869605
0.067777701 -0.091934353 0.12863216
0.068380557 -0.092011914 0.12869605
0.069034405 -0.091934353 0.12863216
0.069662757 -0.091934353 0.12863216
0.070291109 -0.091934353 0.12863216
0.070919462 -0.091934353 0.12863216
0.071547814 -0.091934353 0.12863216
0.072149262 -0.092011914 0.12869605
0.072750241 -0.092089459 0.12875992
0.073378131 -0.092089459 0.12875992
0.073978417 -0.09216699 0.12882377
0.074606061 -0.09216699 0.12882377
0.066471405 -0.092533439 0.12831593
0.067124315 -0.092456073 0.1282519
0.067777701 -0.092378676 0.12818785
0.068431549 -0.092301294 0.12812382
0.069034405 -0.092378676 0.12818785
0.069662757 -0.092378676 0.12818785
0.070291109 -0.092378676 0.12818785
0.070945889 -0.092301294 0.12812382
0.071547814 -0.092378676 0.12818785
0.072203062 -0.092301294 0.12812382
0.072804518 -0.092378676 0.12818785
0.073378131 -0.092533439 0.12831593
0.074006014 -0.092533439 0.12831593
0.074606061 -0.092610806 0.12837996
0.067174368 -0.092745766 0.12767935
0.067828223 -0.092668533 0.12761512
0.068457045 -0.092668533 0.12761512
0.069111593 -0.09259133 0.12755093
0.069766618 -0.092514098 0.12748672
0.070395909 -0.092514098 0.12748672
0.071025193 -0.092514098 0.12748672
0.071627811 -0.09259133 0.12755093
0.072229974 -0.092668533 0.12761512
0.072831646 -0.092745766 0.12767935
0.07343287 -0.092822984 0.12774354
0.074033618 -0.092900217 0.12780775
0.067299515 -0.092804968 0.126913
0.067878753 -0.092959076 0.12704174
0.068508044 -0.092959076 0.12704174
0.069137327 -0.092959076 0.12704174
0.069766618 -0.092959076 0.12704174
0.070448309 -0.092804968 0.126913
0.071157351 -0.092573822 0.12671991
0.071734481 -0.092727929 0.12684865
0.072337575 -0.092804968 0.126913
0.072885916 -0.09303613 0.12710613
0.07348761 -0.093113184 0.12717049
0.074061222 -0.093267292 0.12729923
0.067474708 -0.09271206 0.12601596
0.068106107 -0.09271206 0.12601596
0.068737507 -0.09271206 0.12601596
0.069368899 -0.09271206 0.12601596
0.070026256 -0.092635185 0.12595144
0.070684098 -0.092558295 0.1258869
0.071289517 -0.092635185 0.12595144
0.071867816 -0.092788965 0.1260805
0.072445177 -0.092942744 0.12620957
0.072967328 -0.093250275 0.12646769
0.073542349 -0.093404055 0.12659676
0.074144036 -0.093480945 0.12666132
0.068839483 -0.092851654 0.12531072
0.069574736 -0.092544779 0.12505192
0.070233978 -0.092468038 0.12498721
0.070815086 -0.092621475 0.1251166
0.071448117 -0.092621475 0.1251166
0.072054483 -0.092698216 0.1251813
0.072606586 -0.09292838 0.1253754
0.073761299 -0.093235269 0.12563421
0.06927292 -0.091997325 0.12376086
0.069883503 -0.092073873 0.12382573
0.070519589 -0.092073873 0.12382573
0.071155675 -0.092073873 0.12382573
0.071765311 -0.092150435 0.12389061
0.072401159 -0.092150435 0.12389061
0.072956309 -0.092380106 0.12408519
0.073482901 -0.092686325 0.12434466
0.069629863 -0.09137781 0.12240049
0.070269458 -0.09137781 0.12240049
0.070883088 -0.091454193 0.12246552
0.071496248 -0.091530591 0.12253056
0.072082505 -0.091683373 0.12266064
0.0727745 -0.091530591 0.12253056
0.070475303 -0.09122026 0.12142666
0.071090803 -0.091296494 0.12149186
0.071732037 -0.091296494 0.12149186
0.072373264 -0.091296494 0.12149186
0.073041171 -0.09122026 0.12142666
0.070706874 -0.090989307 0.12038481
0.071324483 -0.091065377 0.12045018
0.071967825 -0.091065377 0.12045018
0.072611161 -0.091065377 0.12045018
0.073227838 -0.091141433 0.12051554
0.073870949 -0.091141433 0.12051554
0.069520764 -0.091140836 0.11966763
0.070216276 -0.090989038 0.11953658
0.07086125 -0.090989038 0.11953658
0.071480274 -0.09106493 0.1196021
0.072125018 -0.09106493 0.1196021
0.072743326 -0.091140836 0.11966763
0.073414512 -0.09106493 0.1196021
0.074059255 -0.09106493 0.1196021
0.069101505 -0.090915009 0.11862066
0.069722869 -0.090990737 0.11868635
0.070369251 -0.090990737 0.11868635
0.071015634 -0.090990737 0.11868635
0.071662024 -0.090990737 0.11868635
0.072282217 -0.091066465 0.11875202
0.072928362 -0.091066465 0.11875202
0.073574513 -0.091066465 0.11875202
0.074220672 -0.091066465 0.11875202
0.069251671 -0.090918869 0.11776827
0.069899701 -0.090918869 0.11776827
0.070573226 -0.09084329 0.11770241
0.071195744 -0.090918869 0.11776827
0.071843773 -0.090918869 0.11776827
0.072465606 -0.090994418 0.11783411
0.073113389 -0.090994418 0.11783411
0.07376118 -0.090994418 0.11783411
0.074408978 -0.090994418 0.11783411
0.075083897 -0.090918869 0.11776827
0.069451898 -0.09077391 0.11678185
0.070051275 -0.090924695 0.11691388
0.070700705 -0.090924695 0.11691388
0.071324393 -0.09100011 0.11697993
0.071973592 -0.09100011 0.11697993
0.072596595 -0.091075495 0.11704594
0.073219113 -0.091150895 0.11711198
0.073867843 -0.091150895 0.11711198
0.074543484 -0.091075495 0.11704594
0.069577031 -0.090857297 0.11599134
0.070228107 -0.090857297 0.11599134
0.070879176 -0.090857297 0.11599134
0.071478777 -0.091007754 0.11612374
0.072129384 -0.091007754 0.11612374
0.072753794 -0.09108299 0.11618991
0.073377714 -0.091158226 0.11625612
0.074027851 -0.091158226 0.11625612
0.074651085 -0.091233462 0.11632229
0.069124311 -0.090717167 0.11500014
0.069752224 -0.090792209 0.11506648
0.070404939 -0.090792209 0.11506648
0.071006656 -0.090942353 0.11519919
0.071581706 -0.091167539 0.11539826
0.072233245 -0.091167539 0.11539826
0.072832383 -0.091317669 0.11553097
0.07345701 -0.091392756 0.11559734
0.074107848 -0.091392756 0.11559734
0.074758686 -0.091392756 0.11559734
0.069297872 -0.090654537 0.11407277
0.069927417 -0.090729445 0.1141393
0.070531249 -0.090879261 0.11427234
0.071185127 -0.090879261 0.11427234
0.071736082 -0.091178864 0.11453845
0.072363064 -0.091253743 0.11460495
0.072989583 -0.091328636 0.11467147
0.073589183 -0.091478452 0.11480451
0.074241191 -0.091478452 0.11480451
0.074893199 -0.091478452 0.11480451
0.069471426 -0.090594262 0.1131431
0.070077591 -0.090743735 0.11327648
0.070682824 -0.090893209 0.11340986
0.071312606 -0.090967953 0.11347656
0.0719162 -0.091117397 0.11360991
0.072492883 -0.091341615 0.11380999
0.073094368 -0.091491088 0.11394337
0.073721342 -0.091565818 0.11401004
0.074347854 -0.091640562 0.11407673
0.069570594 -0.090760022 0.11241169
0.070202723 -0.090834588 0.11247854
0.070834383 -0.090909168 0.1125454
0.071465589 -0.090983734 0.11261223
0.072044849 -0.09120743 0.11281279
0.072622709 -0.091431141 0.11301337
0.07325156 -0.091505706 0.1130802
0.073879942 -0.091580257 0.11314705
0.074481197 -0.091729403 0.11328076
0.069085352 -0.09070389 0.11147788
0.069694564 -0.090852663 0.1116119
0.070352897 -0.090852663 0.1116119
0.070985958 -0.090927079 0.11167893
0.071593069 -0.091075897 0.11181296
0.072147764 -0.091373518 0.11208105
0.072778493 -0.09144792 0.11214805
0.073382556 -0.091596708 0.1122821
0.074012108 -0.091671109 0.11234911
0.069281831 -0.090575814 0.11047457
0.069868118 -0.090798512 0.11067611
0.070503056 -0.090872765 0.1107433
0.071137533 -0.090947002 0.11081047
0.071720548 -0.09116973 0.11101204
0.072327882 -0.091318175 0.11114639
0.07290832 -0.091540903 0.11134796
0.073513545 -0.091689393 0.11148232
0.074144274 -0.091763616 0.11154951
0.068888739 -0.090228185 0.10926655
0.06950286 -0.090376332 0.10940126
0.070091262 -0.090598539 0.10960329
0.070703283 -0.090746686 0.10973799
0.071314365 -0.090894833 0.1098727
0.071822532 -0.091339275 0.11027679
0.07240507 -0.091561481 0.11047885
0.073064104 -0.091561481 0.11047885
0.073670745 -0.091709629 0.11061355
0.069180638 -0.089810312 0.10798739
0.06969934 -0.090253726 0.10839248
0.070289604 -0.09047547 0.10859503
0.070903495 -0.090623289 0.10873005
0.071440674 -0.090992808 0.10906763
0.072001003 -0.091288432 0.10933769
0.072662368 -0.091288432 0.10933769
0.073219895 -0.091584057 0.10960773
0.073801734 -0.091805771 0.10981029
0.069375239 -0.089691341 0.10697497
0.069895811 -0.090133786 0.10738105
0.070487961 -0.090355009 0.10758407
0.071028642 -0.090723708 0.10792249
0.071592249 -0.091018677 0.1081932
0.072255969 -0.091018677 0.1081932
0.072868221 -0.091166154 0.10832858
0.073505498 -0.091239914 0.10839626
0.068421081 -0.088986441 0.10541713
0.068972304 -0.089354306 0.10575636
0.069521189 -0.089722201 0.10609561
0.070092291 -0.090016484 0.10636698
0.070686303 -0.09023723 0.10657053
0.071253896 -0.090531513 0.10684189
0.071844868 -0.090752259 0.10704544
0.07243444 -0.09097296 0.10724898
0.073074058 -0.091046557 0.10731682
0.073713221 -0.091120124 0.10738467
0.068421081 -0.089461386 0.10494219
0.069020487 -0.08968161 0.1051462
0.069618486 -0.08990185 0.10535026
0.070239641 -0.090048671 0.10548629
0.070859857 -0.090195507 0.10562231
0.071429089 -0.090489119 0.10589434
0.0720217 -0.090709358 0.1060984
0.072689399 -0.090709358 0.1060984
0.073331363 -0.090782762 0.10616638
0.073920935 -0.091002986 0.10637042
0.068492651 -0.089716613 0.10426269
0.069116846 -0.089863107 0.10439906
0.069764443 -0.089936346 0.10446723
0.070362441 -0.090156063 0.10467175
0.071033418 -0.090156063 0.10467175
0.071629301 -0.090375811 0.10487629
0.072223797 -0.090595543 0.10508083
0.072918862 -0.090522304 0.10501266
0.073588662 -0.090522304 0.10501266
0.067985624 -0.089680508 0.10330886
0.068611935 -0.089826673 0.10344554
0.069261394 -0.089899749 0.10351388
0.06986174 -0.09011896 0.10371891
0.070509791 -0.09019205 0.10378726
0.071182176 -0.09019205 0.10378726
0.071829528 -0.090265125 0.10385559
0.072451152 -0.090411291 0.10399228
0.073122837 -0.090411291 0.10399228
0.073820233 -0.090338215 0.10392395
0.06808012 -0.089865461 0.10255823
0.068731219 -0.089938357 0.10262671
0.069381848 -0.090011299 0.10269523
0.070007689 -0.090157107 0.10283226
0.070681706 -0.090157107 0.10283226
0.07135573 -0.090157107 0.10283226
0.072029747 -0.090157107 0.10283226
0.072653241 -0.090302944 0.10296927
0.073326796 -0.090302944 0.10296927
0.073974617 -0.090375856 0.10303777
0.068174608 -0.090051726 0.10180625
0.068850502 -0.090051726 0.10180625
0.069526397 -0.090051726 0.10180625
0.070177965 -0.090124488 0.10187493
0.070853621 -0.090124488 0.10187493
0.071529284 -0.090124488 0.10187493
0.072154887 -0.090269968 0.10201228
0.072804816 -0.09034273 0.10208096
0.073479779 -0.09034273 0.10208096
0.074154727 -0.09034273 0.10208096
0.068292722 -0.090166762 0.10098413
0.068993635 -0.090094179 0.1009153
0.06964685 -0.090166762 0.10098413
0.070323914 -0.090166762 0.10098413
0.071000978 -0.090166762 0.10098413
0.071628459 -0.09031193 0.10112181
0.072305053 -0.09031193 0.10112181
0.072981648 -0.09031193 0.10112181
0.07365825 -0.09031193 0.10112181
0.074334845 -0.09031193 0.10112181
0.067732595 -0.090283453 0.10016035
0.068410829 -0.090283453 0.10016035
0.06908907 -0.090283453 0.10016035
0.069767304 -0.090283453 0.10016035
0.070396893 -0.090428278 0.10029835
0.071123779 -0.090283453 0.10016035
0.071802013 -0.090283453 0.10016035
0.072430186 -0.090428278 0.10029835
0.073107958 -0.090428278 0.10029835
0.07378573 -0.090428278 0.10029835
0.074463494 -0.090428278 0.10029835
0.067826152 -0.090474024 0.099404067
0.068505324 -0.090474024 0.099404067
0.069184497 -0.090474024 0.099404067
0.06986367 -0.090474024 0.099404067
0.070518523 -0.090546265 0.099473238
0.071222015 -0.090474024 0.099404067
0.071876399 -0.090546265 0.099473238
0.072555333 -0.090546265 0.099473238
0.07320901 -0.090618521 0.099542424
0.073913217 -0.090546265 0.099473238
0.074592151 -0.090546265 0.099473238
0.067919701 -0.090665936 0.098646462
0.068576187 -0.090738028 0.098715812
0.069279924 -0.090665936 0.098646462
0.069960035 -0.090665936 0.098646462
0.070640147 -0.090665936 0.098646462
0.071320251 -0.090665936 0.098646462
0.071975566 -0.090738028 0.098715812
0.072655439 -0.090738028 0.098715812
0.07333532 -0.090738028 0.098715812
0.073989704 -0.09081009 0.098785147
0.0747208 -0.090665936 0.098646462
0.068036646 -0.090787247 0.097818047
0.068694308 -0.09085916 0.097887546
0.069399208 -0.090787247 0.097818047
0.070080489 -0.090787247 0.097818047
0.07076177 -0.090787247 0.097818047
0.071418494 -0.09085916 0.097887546
0.072099537 -0.09085916 0.097887546
0.072780579 -0.09085916 0.097887546
0.073461629 -0.09085916 0.097887546
0.074117184 -0.090931088 0.09795706
0.074797988 -0.090931088 0.09795706
0.068223752 -0.090694949 0.096778959
0.068906911 -0.090694949 0.096778959
0.069542348 -0.090838462 0.0969183
0.07022503 -0.090838462 0.0969183
0.070907719 -0.090838462 0.0969183
0.071590409 -0.090838462 0.0969183
0.072223507 -0.090981975 0.097057641
0.072905719 -0.090981975 0.097057641
0.073587939 -0.090981975 0.097057641
0.074270159 -0.090981975 0.097057641
0.068387471 -0.090676889 0.095807076
0.069072269 -0.090676889 0.095807076
0.069733202 -0.090748489 0.095876917
0.070417754 -0.090748489 0.095876917
0.071053669 -0.090891674 0.096016586
0.071713202 -0.090963259 0.096086398
0.072372258 -0.091034859 0.096156254
0.073055878 -0.091034859 0.096156254
0.073714249 -0.09110643 0.096226066
0.074397638 -0.09110643 0.096226066
0.06788791 -0.090589747 0.094762862
0.068527795 -0.090732604 0.094902858
0.069214001 -0.090732604 0.094902858
0.069876343 -0.090804011 0.094972864
0.070538208 -0.090875447 0.095042869
0.071223944 -0.090875447 0.095042869
0.071835995 -0.091089696 0.095252857
0.072496235 -0.091161117 0.095322847
0.073206052 -0.091089696 0.095252857
0.073891081 -0.091089696 0.095252857
0.068003677 -0.090719014 0.093926504
0.06864474 -0.090861514 0.094066799
0.069332115 -0.090861514 0.094066799
0.070019484 -0.090861514 0.094066799
0.070706852 -0.090861514 0.094066799
0.071321249 -0.091075301 0.094277307
0.072007909 -0.091075301 0.094277307
0.072644986 -0.091217816 0.094417647
0.073331185 -0.091217816 0.094417647
0.074017391 -0.091217816 0.094417647
0.067384608 -0.090992108 0.093229115
0.068049982 -0.091063201 0.093299463
0.068761684 -0.090992108 0.093229115
0.069450229 -0.090992108 0.093229115
0.070114903 -0.091063201 0.093299463
0.070827305 -0.090992108 0.093229115
0.071491517 -0.091063201 0.093299463
0.072155267 -0.091134295 0.093369782
0.072843343 -0.091134295 0.093369782
0.073506378 -0.091205388 0.09344013
0.074194223 -0.091205388 0.09344013
0.067499205 -0.091124356 0.092389777
0.068188913 -0.091124356 0.092389777
0.068925403 -0.090982497 0.092248783
0.069639206 -0.090911582 0.092178285
0.070329614 -0.090911582 0.092178285
0.070995942 -0.090982497 0.092248783
0.071686126 -0.090982497 0.092248783
0.072327182 -0.091124356 0.092389777
0.07306648 -0.090982497 0.092248783
0.073706605 -0.091124356 0.092389777
0.074371062 -0.091195285 0.092460245
0.067613803 -0.091258273 0.091548771
0.06830468 -0.091258273 0.091548771
0.069065735 -0.091045976 0.091336772
0.069780938 -0.09097521 0.091266125
0.070472762 -0.09097521 0.091266125
0.071164578 -0.09097521 0.091266125
0.071905054 -0.090833694 0.091124788
0.072548218 -0.09097521 0.091266125
0.073240034 -0.09097521 0.091266125
0.073931858 -0.09097521 0.091266125
0.06846676 -0.09125264 0.090564445
0.069182672 -0.091182038 0.090493605
0.069946297 -0.090970248 0.090281144
0.070639752 -0.090970248 0.090281144
0.07135731 -0.090899646 0.090210304
0.072026677 -0.090970248 0.090281144
0.072744697 -0.090899646 0.090210304
0.073438391 -0.090899646 0.090210304
0.074107051 -0.090970248 0.090281144
0.069369778 -0.091108456 0.089435846
0.070088036 -0.091038018 0.089364842
0.070806749 -0.090967596 0.089293852
0.071477763 -0.091038018 0.089364842
0.072172627 -0.091038018 0.089364842
0.072892047 -0.090967596 0.089293852
0.073587142 -0.090967596 0.089293852
0.069603667 -0.090896994 0.088233069
0.070324257 -0.090826735 0.088161916
0.07102146 -0.090826735 0.088161916
0.071694583 -0.090896994 0.088233069
0.072415873 -0.090826735 0.088161916
0.073113084 -0.090826735 0.088161916
0.073810287 -0.090826735 0.088161916
0.070024654 -0.090128064 0.086456403
0.070678599 -0.090268269 0.086599052
0.071331598 -0.090408474 0.086741701
0.071983665 -0.090548664 0.08688435
0.072683454 -0.090548664 0.08688435
0.073383234 -0.090548664 0.08688435
0.074083015 -0.090548664 0.08688435
0.070352085 -0.089644849 0.084959731
0.071009316 -0.089784712 0.085102722
0.07159403 -0.090134367 0.085460156
0.072224572 -0.090344176 0.085674644
0.072902381 -0.090414107 0.085746124
0.073579714 -0.090484008 0.085817605
0.070562586 -0.089515075 0.083816707
0.071198292 -0.089724377 0.084031671
0.071856454 -0.089863911 0.084174976
0.072417304 -0.090282515 0.084604919
0.073096983 -0.090352282 0.084676549
0.073776186 -0.090422049 0.084748223
0.070157014 -0.089109898 0.082383409
0.070866637 -0.089109898 0.082383409
0.071552627 -0.089179501 0.082455248
0.072190441 -0.089388296 0.082670689
0.072850943 -0.089527503 0.082814336
0.073559158 -0.089527503 0.082814336
0 0 0 1 0 0 0 1 0 0 0 1 0 0 0 0 0 545 1 0 0
