ply
format ascii 1.0
comment PCL generated
element vertex 530
property float x
property float y
property float z
element camera 1
property float view_px
property float view_py
property float view_pz
property float x_axisx
property float x_axisy
property float x_axisz
property float y_axisx
property float y_axisy
property float y_axisz
property float z_axisx
property float z_axisy
property float z_axisz
property float focal
property float scalex
property float scaley
property float centerx
property float centery
property int viewportx
property int viewporty
property float k1
property float k2
end_header
0.069636784 -0.088902891 0.13180508
0.070264906 -0.088902891 0.13180508
0.070866592 -0.088981599 0.13186778
0.071494475 -0.088981599 0.13186778
0.068304069 -0.089582652 0.13154955
0.068957217 -0.089504093 0.13148665
0.069610827 -0.089425579 0.1314238
0.070238717 -0.089425579 0.1314238
0.070866592 -0.089425579 0.1314238
0.071467817 -0.089504093 0.13148665
0.072095469 -0.089504093 0.13148665
0.067651391 -0.090104669 0.13116893
0.068304069 -0.090026304 0.1311059
0.068957217 -0.089947909 0.13104284
0.069584869 -0.089947909 0.13104284
0.070238717 -0.089869559 0.13097982
0.070840165 -0.089947909 0.13104284
0.071467817 -0.089947909 0.13104284
0.072068557 -0.090026304 0.1311059
0.072695971 -0.090026304 0.1311059
0.073296025 -0.090104669 0.13116893
0.066974156 -0.09070459 0.13085188
0.067651391 -0.090548158 0.13072546
0.068278573 -0.090548158 0.13072546
0.068931475 -0.090469956 0.13066225
0.069558896 -0.090469956 0.13066225
0.070186317 -0.090469956 0.13066225
0.070813723 -0.090469956 0.13066225
0.071467817 -0.090391725 0.13059902
0.072068557 -0.090469956 0.13066225
0.072695971 -0.090469956 0.13066225
0.073268652 -0.090626389 0.13078867
0.073867999 -0.09070459 0.13085188
0.066322647 -0.091225803 0.13047211
0.066949122 -0.091225803 0.13047211
0.067600869 -0.091147751 0.13040872
0.068253078 -0.091069698 0.13034534
0.068905748 -0.090991646 0.13028197
0.069532938 -0.090991646 0.13028197
0.070186317 -0.090913609 0.1302186
0.070813723 -0.090913609 0.1302186
0.071441144 -0.090913609 0.1302186
0.072068557 -0.090913609 0.1302186
0.072641701 -0.091069698 0.13034534
0.073268652 -0.091069698 0.13034534
0.073867999 -0.091147751 0.13040872
0.066297852 -0.091746658 0.13009265
0.066949122 -0.091668785 0.13002911
0.067600869 -0.091590896 0.12996557
0.068227582 -0.091590896 0.12996557
0.068880014 -0.091513023 0.12990203
0.069532938 -0.091435134 0.12983848
0.070186317 -0.091357261 0.12977494
0.070813723 -0.091357261 0.12977494
0.071441144 -0.091357261 0.12977494
0.072041661 -0.091435134 0.12983848
0.072641701 -0.091513023 0.12990203
0.073268652 -0.091513023 0.12990203
0.073867999 -0.091590896 0.12996557
0.074494705 -0.091590896 0.12996557
0.066273056 -0.092267215 0.12971355
0.066924095 -0.092189491 0.12964983
0.067550346 -0.092189491 0.12964983
0.068202086 -0.092111781 0.12958613
0.068854287 -0.092034042 0.12952241
0.069532938 -0.091878608 0.12939501
0.070186317 -0.091800898 0.12933129
0.070813723 -0.091800898 0.12933129
0.071441144 -0.091800898 0.12933129
0.072041661 -0.091878608 0.12939501
0.072668836 -0.091878608 0.12939501
0.073268652 -0.091956347 0.12945871
0.073895596 -0.091956347 0.12945871
0.074494705 -0.092034042 0.12952241
0.066273056 -0.092709869 0.1292709
0.066924095 -0.092632309 0.12920702
0.067550346 -0.092632309 0.12920702
0.068227582 -0.092477202 0.12907927
0.068854287 -0.092477202 0.12907927
0.069506966 -0.092399657 0.1290154
0.070160121 -0.092322096 0.12895152
0.070813723 -0.092244551 0.12888765
0.071441144 -0.092244551 0.12888765
0.072068557 -0.092244551 0.12888765
0.072668836 -0.092322096 0.12895152
0.073296025 -0.092322096 0.12895152
0.073895596 -0.092399657 0.1290154
0.07452254 -0.092399657 0.1290154
0.066924095 -0.093075126 0.1287642
0.067575604 -0.09299776 0.12870017
0.068202086 -0.09299776 0.12870017
0.068905748 -0.092765585 0.12850803
0.069506966 -0.092842981 0.12857208
0.070212521 -0.092610806 0.12837996
0.070840165 -0.092610806 0.12837996
0.071467817 -0.092610806 0.12837996
0.072095469 -0.092610806 0.12837996
0.072695971 -0.092688203 0.128444
0.073323391 -0.092688203 0.128444
0.073923208 -0.092765585 0.12850803
0.07452254 -0.092842981 0.12857208
0.066924095 -0.093517959 0.12832138
0.067575604 -0.093440741 0.12825717
0.068227582 -0.093363509 0.12819296
0.068880014 -0.093286291 0.12812877
0.069532938 -0.093209058 0.12806454
0.070212521 -0.093054622 0.12793614
0.070893019 -0.092900217 0.12780775
0.071547814 -0.092822984 0.12774354
0.072122365 -0.092977419 0.12787196
0.072750241 -0.092977419 0.12787196
0.073350765 -0.093054622 0.12793614
0.073950805 -0.093131855 0.12800035
0.067575604 -0.093883723 0.12781419
0.068253078 -0.093729615 0.12768544
0.068931475 -0.093575507 0.1275567
0.069584869 -0.093498439 0.12749232
0.070212521 -0.093498439 0.12749232
0.070919462 -0.093267292 0.12729923
0.071574479 -0.093190253 0.12723486
0.072203062 -0.093190253 0.12723486
0.072831646 -0.093190253 0.12723486
0.073405497 -0.093344361 0.12736361
0.074006014 -0.0934214 0.12742797
0.068329573 -0.093942255 0.12704851
0.069034405 -0.093711615 0.12685493
0.069740646 -0.093480945 0.12666132
0.070395909 -0.093404055 0.12659676
0.071078055 -0.093250275 0.12646769
0.071707815 -0.093250275 0.12646769
0.072283775 -0.093404055 0.12659676
0.072858788 -0.093557835 0.12672584
0.07343287 -0.093711615 0.12685493
0.074033618 -0.093788505 0.12691946
0.068686515 -0.093311965 0.12569889
0.069368899 -0.093158528 0.12556949
0.070000298 -0.093158528 0.12556949
0.070657894 -0.093081817 0.12550482
0.071289517 -0.093081817 0.12550482
0.071894489 -0.093158528 0.12556949
0.072498977 -0.093235269 0.12563421
0.072994463 -0.09361887 0.12595771
0.073569715 -0.093772322 0.1260871
0.070467658 -0.092226982 0.12395546
0.070998475 -0.092533216 0.12421492
0.071527414 -0.09283945 0.12447439
0.072267823 -0.092533216 0.12421492
0.070449568 -0.090843081 0.12194528
0.071090803 -0.090843081 0.12194528
0.071574852 -0.091301396 0.12233546
0.067881949 -0.08931464 0.11979674
0.068901286 -0.090153113 0.12051392
0.070037805 -0.090610474 0.12090509
0.070655413 -0.090686694 0.12097028
0.071246594 -0.090839148 0.12110068
0.07181064 -0.091067806 0.12129626
0.067380577 -0.089316025 0.11894685
0.067955628 -0.089544192 0.11914293
0.068454884 -0.090000555 0.11953512
0.069001399 -0.090304777 0.11979654
0.069546036 -0.090609014 0.120058
0.07019078 -0.090609014 0.120058
0.070809789 -0.090685084 0.12012337
0.071402378 -0.090837181 0.12025408
0.072046429 -0.090837181 0.12025408
0.072690465 -0.090837181 0.12025408
0.067429222 -0.089622959 0.11835708
0.067980185 -0.089926511 0.11861917
0.068529271 -0.090230092 0.11888129
0.069076478 -0.090533674 0.11914341
0.069672339 -0.090685472 0.11927447
0.070292771 -0.090761334 0.11933997
0.070964172 -0.090685472 0.11927447
0.071584128 -0.090761334 0.11933997
0.072203614 -0.09083724 0.11940552
0.072849058 -0.09083724 0.11940552
0.073494509 -0.09083724 0.11940552
0.066900484 -0.089703351 0.11756955
0.067502208 -0.089854807 0.11770093
0.068053864 -0.090157717 0.11796372
0.06860365 -0.090460643 0.1182265
0.069176592 -0.090687811 0.11842357
0.069773391 -0.090839282 0.11855495
0.070394747 -0.090915009 0.11862066
0.071067095 -0.090839282 0.11855495
0.071687981 -0.090915009 0.11862066
0.072308414 -0.090990737 0.11868635
0.072981216 -0.090915009 0.11862066
0.073601179 -0.090990737 0.11868635
0.074274465 -0.090915009 0.11862066
0.066297829 -0.090012133 0.11697796
0.066900484 -0.090163231 0.11710967
0.067526527 -0.09023881 0.11717553
0.068102986 -0.090465471 0.11737311
0.068702824 -0.090616614 0.11750482
0.069276705 -0.09084329 0.11770241
0.069924966 -0.09084329 0.11770241
0.070573226 -0.09084329 0.11770241
0.071221478 -0.09084329 0.11770241
0.071869738 -0.09084329 0.11770241
0.072518006 -0.09084329 0.11770241
0.073139817 -0.090918869 0.11776827
0.073814519 -0.09084329 0.11770241
0.074462779 -0.09084329 0.11770241
0.066345543 -0.090321541 0.11638571
0.06694866 -0.090472341 0.11651775
0.067599498 -0.090472341 0.11651775
0.068201222 -0.090623111 0.11664979
0.068826787 -0.09069851 0.11671583
0.069451898 -0.09077391 0.11678185
0.070101798 -0.09077391 0.11678185
0.070751697 -0.09077391 0.11678185
0.071350127 -0.090924695 0.11691388
0.071999565 -0.090924695 0.11691388
0.072622791 -0.09100011 0.11697993
0.073298417 -0.090924695 0.11691388
0.073921181 -0.09100011 0.11697993
0.074597284 -0.090924695 0.11691388
0.068373136 -0.090556368 0.11572659
0.068975553 -0.09070684 0.11585897
0.069602057 -0.090782076 0.11592516
0.070253365 -0.090782076 0.11592516
0.070879176 -0.090857297 0.11599134
0.071504503 -0.090932548 0.11605754
0.072129384 -0.091007754 0.11612374
0.072753794 -0.09108299 0.11618991
0.073404156 -0.09108299 0.11618991
0.074054524 -0.09108299 0.11618991
0.074704893 -0.09108299 0.11618991
0.068520486 -0.090567023 0.11486742
0.069149107 -0.090642095 0.11493376
0.06977725 -0.090717167 0.11500014
0.070430197 -0.090717167 0.11500014
0.071032159 -0.090867266 0.11513284
0.071658894 -0.090942353 0.11519919
0.072285175 -0.09101741 0.11526555
0.072884783 -0.091167539 0.11539826
0.073509879 -0.091242626 0.11546463
0.074134521 -0.091317669 0.11553097
0.07478559 -0.091317669 0.11553097
0.068716966 -0.090429857 0.11387321
0.069347449 -0.090504766 0.11393975
0.069952451 -0.090654537 0.11407277
0.070581771 -0.090729445 0.1141393
0.07121063 -0.090804338 0.11420581
0.071761817 -0.091103956 0.1144719
0.072389022 -0.091178864 0.11453845
0.072989583 -0.091328636 0.11467147
0.073642053 -0.091328636 0.11467147
0.074267857 -0.091403559 0.11473799
0.074893199 -0.091478452 0.11480451
0.068864316 -0.090444818 0.11300975
0.069521002 -0.090444818 0.11300975
0.070127644 -0.090594262 0.1131431
0.070733346 -0.090743735 0.11327648
0.07133811 -0.090893209 0.11340986
0.071941927 -0.091042683 0.11354323
0.072544813 -0.091192141 0.11367661
0.073146768 -0.091341615 0.11380999
0.073747776 -0.091491088 0.11394337
0.074401192 -0.091491088 0.11394337
0.068426557 -0.09023805 0.11194372
0.069036238 -0.090387166 0.1120774
0.069669768 -0.090461731 0.11214426
0.07027781 -0.090610877 0.11227798
0.070859656 -0.090834588 0.11247854
0.071491078 -0.090909168 0.1125454
0.072070576 -0.091132864 0.11274594
0.072648674 -0.091356561 0.11294651
0.07325156 -0.091505706 0.1130802
0.073879942 -0.091580257 0.11314705
0.074534528 -0.091580257 0.11314705
0.068523854 -0.090406269 0.11120979
0.069109917 -0.090629473 0.11141086
0.069768943 -0.090629473 0.11141086
0.070402943 -0.09070389 0.11147788
0.07101123 -0.090852663 0.1116119
0.071618564 -0.091001481 0.11174594
0.072173499 -0.091299102 0.11201403
0.072804458 -0.091373518 0.11208105
0.073434956 -0.09144792 0.11214805
0.074064977 -0.091522306 0.11221506
0.068032756 -0.090353101 0.11027302
0.068621159 -0.090575814 0.11047457
0.069257274 -0.090650052 0.11054173
0.069892913 -0.090724304 0.11060894
0.07052809 -0.090798512 0.11067611
0.071137533 -0.090947002 0.11081047
0.071720548 -0.09116973 0.11101204
0.072327882 -0.091318175 0.11114639
0.072934285 -0.091466665 0.11128075
0.073565945 -0.091540903 0.11134796
0.074223571 -0.091540903 0.11134796
0.068105035 -0.090598539 0.10960329
0.068742782 -0.090672627 0.10967065
0.069380067 -0.090746686 0.10973799
0.070016876 -0.09082076 0.10980535
0.070653223 -0.090894833 0.1098727
0.07121332 -0.091191128 0.11014211
0.071848027 -0.091265187 0.11020944
0.072456531 -0.091413334 0.11034414
0.073116034 -0.091413334 0.11034414
0.073723137 -0.091561481 0.11047885
0.068297759 -0.09047547 0.10859503
0.068937384 -0.09054935 0.10866253
0.069576539 -0.090623289 0.10873005
0.070215225 -0.090697169 0.10879757
0.070828415 -0.090844989 0.1089326
0.071415417 -0.091066688 0.10913514
0.072026506 -0.091214508 0.10927017
0.072662368 -0.091288432 0.10933769
0.073297784 -0.091362327 0.1094052
0.073906533 -0.091510147 0.10954024
0.068514571 -0.090281278 0.10751642
0.069107659 -0.090502486 0.10771945
0.069748454 -0.090576246 0.10778713
0.070388779 -0.090649977 0.10785481
0.071028642 -0.090723708 0.10792249
0.071592249 -0.091018677 0.1081932
0.072230466 -0.091092438 0.1082609
0.072868221 -0.091166154 0.10832858
0.073505498 -0.091239914 0.10839626
0.068015516 -0.09023723 0.10657053
0.069277935 -0.090457946 0.10677405
0.069920376 -0.090531513 0.10684189
0.070562333 -0.090605095 0.10690975
0.071203835 -0.090678662 0.10697758
0.071819603 -0.090825826 0.10711327
0.07243444 -0.09097296 0.10724898
0.073074058 -0.091046557 0.10731682
0.073739178 -0.091046557 0.10731682
0.068182513 -0.090195507 0.10562231
0.068803668 -0.090342298 0.10575831
0.069423892 -0.090489119 0.10589434
0.070067726 -0.090562537 0.10596237
0.070735887 -0.090562537 0.10596237
0.071353994 -0.090709358 0.1060984
0.071945913 -0.090929583 0.10630241
0.072612911 -0.090929583 0.10630241
0.073254175 -0.091002986 0.10637042
0.073920935 -0.091002986 0.10637042
0.067678541 -0.090156063 0.10467175
0.068301797 -0.090302557 0.10480811
0.068948209 -0.090375811 0.10487629
0.069569834 -0.090522304 0.10501266
0.070239641 -0.090522304 0.10501266
0.070909441 -0.090522304 0.10501266
0.071529187 -0.090668797 0.10514902
0.072173275 -0.090742037 0.10521717
0.072842374 -0.090742037 0.10521717
0.073485747 -0.090815261 0.10528535
0.074154615 -0.090815261 0.10528535
0.067820273 -0.09019205 0.10378726
0.068444937 -0.090338215 0.10392395
0.069116846 -0.090338215 0.10392395
0.069788761 -0.090338215 0.10392395
0.070460677 -0.090338215 0.10392395
0.071058206 -0.090557456 0.10412897
0.071729414 -0.090557456 0.10412897
0.072375372 -0.090630502 0.10419729
0.073046349 -0.090630502 0.10419729
0.073691584 -0.090703592 0.10426566
0.07436233 -0.090703592 0.10426566
0.06793838 -0.090302944 0.10296927
0.068588078 -0.090375856 0.10303777
0.069261394 -0.090375856 0.10303777
0.069934718 -0.090375856 0.10303777
0.070632592 -0.090302944 0.10296927
0.071281351 -0.090375856 0.10303777
0.071954668 -0.090375856 0.10303777
0.072602727 -0.090448752 0.10310628
0.07322482 -0.090594575 0.10324329
0.073871695 -0.090667501 0.10331181
0.068056501 -0.090415463 0.10214961
0.068707362 -0.090488225 0.1022183
0.069405943 -0.090415463 0.10214961
0.070080668 -0.090415463 0.10214961
0.070779949 -0.09034273 0.10208096
0.071454905 -0.09034273 0.10208096
0.072104834 -0.090415463 0.10214961
0.072779559 -0.090415463 0.10214961
0.073454283 -0.090415463 0.10214961
0.074103266 -0.090488225 0.1022183
0.068174608 -0.090529665 0.10132831
0.068874359 -0.090457097 0.10125948
0.069526397 -0.090529665 0.10132831
0.070226617 -0.090457097 0.10125948
0.070902742 -0.090457097 0.10125948
0.071603663 -0.090384498 0.10119063
0.072254993 -0.090457097 0.10125948
0.072931126 -0.090457097 0.10125948
0.073581763 -0.090529665 0.10132831
0.074283384 -0.090457097 0.10125948
0.068245478 -0.090790361 0.10064338
0.068969786 -0.090645522 0.10050537
0.06964685 -0.090645522 0.10050537
0.070372567 -0.090500683 0.10036735
0.0710501 -0.090500683 0.10036735
0.071727633 -0.090500683 0.10036735
0.072405167 -0.090500683 0.10036735
0.073057435 -0.090573102 0.10043637
0.073734738 -0.090573102 0.10043637
0.074437767 -0.090500683 0.10036735
0.075089335 -0.090573102 0.10043637
0.068363585 -0.090907529 0.099819094
0.069041356 -0.090907529 0.099819094
0.069767304 -0.090763032 0.099680766
0.070469871 -0.090690777 0.099611565
0.071148336 -0.090690777 0.099611565
0.071851596 -0.090618521 0.099542424
0.072530299 -0.090618521 0.099542424
0.07320901 -0.090618521 0.099542424
0.073887713 -0.090618521 0.099542424
0.074566416 -0.090618521 0.099542424
0.06845808 -0.091098443 0.099062502
0.069136783 -0.091098443 0.099062502
0.069839582 -0.091026351 0.098993152
0.070542842 -0.090954274 0.098923817
0.071271136 -0.09081009 0.098785147
0.071950771 -0.09081009 0.098785147
0.072655439 -0.090738028 0.098715812
0.07333532 -0.090738028 0.098715812
0.073989704 -0.09081009 0.098785147
0.074695066 -0.090738028 0.098715812
0.068552569 -0.091290668 0.09830457
0.06925606 -0.09121877 0.098235071
0.069960035 -0.091146842 0.098165557
0.070664465 -0.091074929 0.098096073
0.071344808 -0.091074929 0.098096073
0.072074741 -0.090931088 0.09795706
0.072755553 -0.090931088 0.09795706
0.073436365 -0.090931088 0.09795706
0.074117184 -0.090931088 0.09795706
0.074797988 -0.090931088 0.09795706
0.069375351 -0.091340736 0.09740597
0.070104577 -0.091197252 0.097266644
0.070786089 -0.091197252 0.097266644
0.071467601 -0.091197252 0.097266644
0.072198704 -0.091053739 0.097127318
0.072830632 -0.091197252 0.097266644
0.073562674 -0.091053739 0.097127318
0.074244663 -0.091053739 0.097127318
0.074926637 -0.091053739 0.097127318
0.069542348 -0.091321185 0.096435577
0.070273213 -0.091178015 0.096295893
0.070980698 -0.09110643 0.096226066
0.071639523 -0.091178015 0.096295893
0.07227309 -0.091321185 0.096435577
0.073005833 -0.091178015 0.096295893
0.073638462 -0.091321185 0.096435577
0.07437215 -0.091178015 0.096295893
0.069733202 -0.091232553 0.095392853
0.07044185 -0.091161117 0.095322847
0.071126647 -0.091161117 0.095322847
0.07178688 -0.091232553 0.095392853
0.072421849 -0.091375396 0.095532864
0.073181026 -0.091161117 0.095322847
0.073790029 -0.091375396 0.095532864
0.074525118 -0.091232553 0.095392853
0.069947906 -0.091075301 0.094277307
0.070634574 -0.091075301 0.094277307
0.071272597 -0.091217816 0.094417647
0.071934238 -0.091289058 0.094487816
0.072620198 -0.091289058 0.094487816
0.073306166 -0.091289058 0.094487816
0.073966861 -0.091360331 0.094557986
0.068761684 -0.090992108 0.093229115
0.069497474 -0.090849921 0.093088448
0.070138767 -0.090992108 0.093229115
0.07080321 -0.091063201 0.093299463
0.071491517 -0.091063201 0.093299463
0.072081596 -0.091347545 0.093580768
0.072744168 -0.091418669 0.093651101
0.073456332 -0.091347545 0.093580768
0.074118435 -0.091418669 0.093651101
0.068972178 -0.090840638 0.092107788
0.06968645 -0.090769738 0.092037305
0.070353478 -0.090840638 0.092107788
0.071020029 -0.090911582 0.092178285
0.071637474 -0.091124356 0.092389777
0.072302625 -0.091195285 0.092460245
0.072967306 -0.091266215 0.092530772
0.073656552 -0.091266215 0.092530772
0.074345797 -0.091266215 0.092530772
0.069159284 -0.090762943 0.091054142
0.069875434 -0.090692177 0.090983465
0.070568189 -0.090692177 0.090983465
0.071236849 -0.090762943 0.091054142
0.071856402 -0.09097521 0.091266125
0.072523661 -0.091045976 0.091336772
0.073190451 -0.091116741 0.091407448
0.073881797 -0.091116741 0.091407448
0.074522629 -0.091258273 0.091548771
0.069346391 -0.090687856 0.089997828
0.070040792 -0.090687856 0.089997828
0.070735186 -0.090687856 0.089997828
0.071381398 -0.090829059 0.090139478
0.072026677 -0.090970248 0.090281144
0.072671011 -0.091111436 0.090422809
0.073364004 -0.091111436 0.090422809
0.074107051 -0.090970248 0.090281144
0.074749984 -0.091111436 0.090422809
0.070111655 -0.090967596 0.089293852
0.070806749 -0.090967596 0.089293852
0.071550034 -0.090826735 0.089151859
0.072172627 -0.091038018 0.089364842
0.07286749 -0.091038018 0.089364842
0.073537558 -0.091108456 0.089435846
0.074232183 -0.091108456 0.089435846
0.070182517 -0.091248333 0.088588864
0.070902184 -0.091178045 0.088517696
0.071574122 -0.091248333 0.088588864
0.072367229 -0.090967268 0.088304237
0.073063962 -0.090967268 0.088304237
0.070560485 -0.090618744 0.086955667
0.071188457 -0.090829059 0.087169647
0.071815029 -0.091039345 0.087383613
0.07256183 -0.090899155 0.087240964
0.073309556 -0.09075895 0.087098315
0.07091482 -0.090064436 0.085388675
0.071474746 -0.090484008 0.085817605
0.072104119 -0.090693831 0.086032078
0.072878055 -0.090484008 0.085817605
0.073506027 -0.090693831 0.086032078
0.071198292 -0.089724377 0.084031671
0.07180874 -0.090003446 0.08431828
0.072393216 -0.090352282 0.084676549
0.073072657 -0.090422049 0.084748223
0.072971396 -0.089179501 0.082455248
0.073680781 -0.089179501 0.082455248
0 0 0 1 0 0 0 1 0 0 0 1 0 0 0 0 0 530 1 0 0
