ply
format ascii 1.0
comment PCL generated
element vertex 556
property float x
property float y
property float z
element camera 1
property float view_px
property float view_py
property float view_pz
property float x_axisx
property float x_axisy
property float x_axisz
property float y_axisx
property float y_axisy
property float y_axisz
property float z_axisx
property float z_axisy
property float z_axisz
property float focal
property float scalex
property float scaley
property float centerx
property float centery
property int viewportx
property int viewporty
property float k1
property float k2
end_header
0.069740646 -0.088588044 0.13155422
0.070369706 -0.088588044 0.13155422
0.070998751 -0.088588044 0.13155422
0.067777701 -0.089268491 0.13129804
0.068406053 -0.089268491 0.13129804
0.069060132 -0.089189947 0.13123517
0.069714688 -0.089111388 0.13117227
0.070343509 -0.089111388 0.13117227
0.070972323 -0.089111388 0.13117227
0.071601145 -0.089111388 0.13117227
0.072176166 -0.089268491 0.13129804
0.067099288 -0.089869559 0.13097982
0.067727178 -0.089869559 0.13097982
0.068380557 -0.089791179 0.13091677
0.069060132 -0.089634418 0.13079068
0.069688715 -0.089634418 0.13079068
0.070317306 -0.089634418 0.13079068
0.070945889 -0.089634418 0.13079068
0.071574479 -0.089634418 0.13079068
0.072149262 -0.089791179 0.13091677
0.072750241 -0.089869559 0.13097982
0.066421822 -0.090469956 0.13066225
0.067074262 -0.090391725 0.13059902
0.067727178 -0.090313539 0.13053584
0.068355061 -0.090313539 0.13053584
0.069008671 -0.090235338 0.13047263
0.069636784 -0.090235338 0.13047263
0.070291109 -0.090157107 0.13040942
0.070919462 -0.090157107 0.13040942
0.071547814 -0.090157107 0.13040942
0.072149262 -0.090235338 0.13047263
0.072723113 -0.090391725 0.13059902
0.073323391 -0.090469956 0.13066225
0.066397026 -0.090991646 0.13028197
0.067049235 -0.090913609 0.1302186
0.067676648 -0.090913609 0.1302186
0.068329573 -0.090835541 0.13015521
0.068982944 -0.090757519 0.13009186
0.069610827 -0.090757519 0.13009186
0.070264906 -0.090679482 0.13002849
0.070919462 -0.090601414 0.1299651
0.071494475 -0.090757519 0.13009186
0.072149262 -0.090679482 0.13002849
0.072695971 -0.090913609 0.1302186
0.073323391 -0.090913609 0.1302186
0.073895596 -0.091069698 0.13034534
0.06572073 -0.091590896 0.12996557
0.066372231 -0.091513023 0.12990203
0.066999175 -0.091513023 0.12990203
0.067651391 -0.091435134 0.12983848
0.068304069 -0.091357261 0.12977494
0.068931475 -0.091357261 0.12977494
0.069584869 -0.091279358 0.12971139
0.070238717 -0.091201499 0.12964788
0.070866592 -0.091201499 0.12964788
0.071494475 -0.091201499 0.12964788
0.072095469 -0.091279358 0.12971139
0.072668836 -0.091435134 0.12983848
0.073296025 -0.091435134 0.12983848
0.073923208 -0.091435134 0.12983848
0.074494705 -0.091590896 0.12996557
0.065696165 -0.092111781 0.12958613
0.066322647 -0.092111781 0.12958613
0.066974156 -0.092034042 0.12952241
0.067626126 -0.091956347 0.12945871
0.068278573 -0.091878608 0.12939501
0.068905748 -0.091878608 0.12939501
0.069584869 -0.091723174 0.12926759
0.070212521 -0.091723174 0.12926759
0.070866592 -0.091645479 0.1292039
0.071494475 -0.091645479 0.1292039
0.072095469 -0.091723174 0.12926759
0.072695971 -0.091800898 0.12933129
0.073296025 -0.091878608 0.12939501
0.073923208 -0.091878608 0.12939501
0.07452254 -0.091956347 0.12945871
0.065696165 -0.092554763 0.12914315
0.066322647 -0.092554763 0.12914315
0.066974156 -0.092477202 0.12907927
0.067626126 -0.092399657 0.1290154
0.068253078 -0.092399657 0.1290154
0.068905748 -0.092322096 0.12895152
0.069584869 -0.09216699 0.12882377
0.070212521 -0.09216699 0.12882377
0.070840165 -0.09216699 0.12882377
0.071494475 -0.092089459 0.12875992
0.072095469 -0.09216699 0.12882377
0.072695971 -0.092244551 0.12888765
0.073296025 -0.092322096 0.12895152
0.073923208 -0.092322096 0.12895152
0.07452254 -0.092399657 0.1290154
0.066297852 -0.093075126 0.1287642
0.066974156 -0.092920363 0.12863611
0.067626126 -0.092842981 0.12857208
0.068253078 -0.092842981 0.12857208
0.068931475 -0.092688203 0.128444
0.069558896 -0.092688203 0.128444
0.070186317 -0.092688203 0.128444
0.070840165 -0.092610806 0.12837996
0.071494475 -0.092533439 0.12831593
0.072095469 -0.092610806 0.12837996
0.072695971 -0.092688203 0.128444
0.073323391 -0.092688203 0.128444
0.073923208 -0.092765585 0.12850803
0.074494705 -0.092920363 0.12863611
0.066347443 -0.093363509 0.12819296
0.067024209 -0.093209058 0.12806454
0.067651391 -0.093209058 0.12806454
0.068329573 -0.093054622 0.12793614
0.068957217 -0.093054622 0.12793614
0.069610827 -0.092977419 0.12787196
0.070264906 -0.092900217 0.12780775
0.070893019 -0.092900217 0.12780775
0.071494475 -0.092977419 0.12787196
0.072122365 -0.092977419 0.12787196
0.072723113 -0.093054622 0.12793614
0.073323391 -0.093131855 0.12800035
0.073923208 -0.093209058 0.12806454
0.066999175 -0.093729615 0.12768544
0.067651391 -0.093652546 0.12762107
0.068329573 -0.093498439 0.12749232
0.068982944 -0.0934214 0.12742797
0.069610827 -0.0934214 0.12742797
0.070264906 -0.093344361 0.12736361
0.070919462 -0.093267292 0.12729923
0.071547814 -0.093267292 0.12729923
0.072149262 -0.093344361 0.12736361
0.072750241 -0.0934214 0.12742797
0.073323391 -0.093575507 0.1275567
0.073923208 -0.093652546 0.12762107
0.067676648 -0.094019145 0.12711304
0.068355061 -0.093865395 0.126984
0.069060132 -0.093634725 0.12679039
0.069740646 -0.093480945 0.12666132
0.070395909 -0.093404055 0.12659676
0.07105162 -0.09332718 0.12653224
0.071654484 -0.093404055 0.12659676
0.072203062 -0.093634725 0.12679039
0.072804518 -0.093711615 0.12685493
0.073405497 -0.093788505 0.12691946
0.068661012 -0.093388706 0.12576361
0.069265977 -0.093465418 0.12582831
0.069974326 -0.093235269 0.12563421
0.070605494 -0.093235269 0.12563421
0.071236648 -0.093235269 0.12563421
0.072913058 -0.093849018 0.1261518
0.06896697 -0.092915997 0.12453926
0.069626197 -0.09283945 0.12447439
0.070311867 -0.092686325 0.12434466
0.070867486 -0.092915997 0.12453926
0.071474545 -0.092992559 0.12460414
0.072027817 -0.093222216 0.12479872
0.070216276 -0.090532973 0.11999264
0.07086125 -0.090532973 0.11999264
0.072125018 -0.090609014 0.120058
0.069773391 -0.090381876 0.11901236
0.07042025 -0.090381876 0.11901236
0.07104136 -0.090457782 0.11907789
0.071687981 -0.090457782 0.11907789
0.072334602 -0.090457782 0.11907789
0.072981216 -0.090457782 0.11907789
0.073601179 -0.090533674 0.11914341
0.069276705 -0.090384901 0.1181608
0.069874443 -0.090536371 0.11829217
0.070522234 -0.090536371 0.11829217
0.071170017 -0.090536371 0.11829217
0.071765885 -0.090687811 0.11842357
0.072465606 -0.090536371 0.11829217
0.073139817 -0.090460643 0.1182265
0.073814519 -0.090384901 0.1181608
0.068110332 -0.088425294 0.11559492
0.068397693 -0.089558735 0.11658281
0.068901166 -0.090012133 0.11697796
0.069451898 -0.090314358 0.1172414
0.07002601 -0.090541065 0.11743897
0.070649713 -0.090616614 0.11750482
0.071272932 -0.090692177 0.1175707
0.071947634 -0.090616614 0.11750482
0.072544202 -0.090767741 0.11763655
0.073219113 -0.090692177 0.1175707
0.073867843 -0.090692177 0.1175707
0.068231955 -0.088512003 0.11480111
0.068643287 -0.089265957 0.11546135
0.069049932 -0.090019941 0.11612161
0.069602057 -0.090321541 0.11638571
0.070202842 -0.090472341 0.11651775
0.070828184 -0.090547711 0.11658378
0.07145305 -0.090623111 0.11664979
0.072077453 -0.09069851 0.11671583
0.072701395 -0.09077391 0.11678185
0.073351286 -0.09077391 0.11678185
0.074001186 -0.09077391 0.11678185
0.069248281 -0.089879289 0.11513087
0.069802284 -0.090180218 0.11539564
0.070404939 -0.090330675 0.11552802
0.071032159 -0.090405911 0.11559419
0.071581706 -0.09070684 0.11585897
0.072181314 -0.090857297 0.11599134
0.072832383 -0.090857297 0.11599134
0.07345701 -0.090932548 0.11605754
0.074107848 -0.090932548 0.11605754
0.067960486 -0.088239998 0.11281039
0.068523854 -0.088540256 0.11307581
0.069060795 -0.088915586 0.1134076
0.069446631 -0.089741305 0.1141375
0.069977477 -0.090116635 0.11446927
0.070556514 -0.090341821 0.11466834
0.071134135 -0.090567023 0.11486742
0.071684629 -0.090867266 0.11513284
0.072337106 -0.090867266 0.11513284
0.072963379 -0.090942353 0.11519919
0.073589183 -0.09101741 0.11526555
0.074267857 -0.090942353 0.11519919
0.074893199 -0.09101741 0.11526555
0.068080939 -0.088332668 0.11201061
0.068621159 -0.088707164 0.11234322
0.069109917 -0.089231461 0.11280887
0.069570594 -0.089830667 0.11334105
0.070127644 -0.09013024 0.11360712
0.070682824 -0.090429857 0.11387321
0.071287118 -0.090579659 0.11400625
0.071864739 -0.090804338 0.11420581
0.072440952 -0.091029063 0.11440539
0.073068172 -0.091103956 0.1144719
0.073694907 -0.091178864 0.11453845
0.074347854 -0.091178864 0.11453845
0.067538381 -0.088426977 0.1112092
0.068105035 -0.088725895 0.11147593
0.068669811 -0.089024842 0.11174268
0.069208153 -0.089398518 0.1120761
0.069694564 -0.089921653 0.11254291
0.07027781 -0.090145871 0.11274299
0.070834383 -0.090444818 0.11300975
0.071440093 -0.090594262 0.1131431
0.071993388 -0.090893209 0.11340986
0.072570786 -0.091117397 0.11360991
0.073225372 -0.091117397 0.11360991
0.073853508 -0.091192141 0.11367661
0.074481197 -0.09126687 0.11374329
0.067586094 -0.088746667 0.11060666
0.068201393 -0.088895798 0.11074038
0.068718463 -0.089343205 0.11114147
0.06923271 -0.089790627 0.11154261
0.069818534 -0.090014324 0.11174315
0.070377916 -0.090312615 0.11201057
0.070960701 -0.090536296 0.11221112
0.071542069 -0.090760022 0.11241169
0.072122037 -0.090983734 0.11261223
0.072726563 -0.091132864 0.11274594
0.07335636 -0.09120743 0.11281279
0.073959239 -0.091356561 0.11294651
0.074614532 -0.091356561 0.11294651
0.067586094 -0.08921583 0.11013751
0.068177305 -0.08943902 0.11033857
0.068742782 -0.08973664 0.11060664
0.069330946 -0.089959845 0.11080769
0.069892913 -0.090257466 0.11107577
0.070503056 -0.090406269 0.11120979
0.07108701 -0.090629473 0.11141086
0.071669556 -0.090852663 0.1116119
0.072276421 -0.091001481 0.11174594
0.072830424 -0.091299102 0.11201403
0.073487349 -0.091299102 0.11201403
0.074117832 -0.091373518 0.11208105
0.067633808 -0.089536503 0.109534
0.068225488 -0.089759201 0.10973553
0.068791434 -0.090056151 0.11000428
0.069404624 -0.090204641 0.11013864
0.069992088 -0.090427339 0.11034019
0.07060317 -0.090575814 0.11047457
0.07121332 -0.090724304 0.11060894
0.071822532 -0.090872765 0.1107433
0.072379336 -0.09116973 0.11101204
0.073012173 -0.091243953 0.11107922
0.073644549 -0.091318175 0.11114639
0.074302875 -0.091318175 0.11114639
0.067087971 -0.089635611 0.10872777
0.067681521 -0.089857832 0.10892981
0.068297759 -0.090005979 0.10906452
0.068888739 -0.090228185 0.10926655
0.069527417 -0.090302259 0.1093339
0.070091262 -0.090598539 0.10960329
0.070728302 -0.090672627 0.10967065
0.071364895 -0.090746686 0.10973799
0.071924515 -0.091042981 0.11000741
0.072533719 -0.091191128 0.11014211
0.073167965 -0.091265187 0.11020944
0.073801734 -0.091339275 0.11027679
0.07446146 -0.091339275 0.11027679
0.068418212 -0.090105921 0.10825744
0.069034688 -0.090253726 0.10839248
0.069674775 -0.09032765 0.10845999
0.070264816 -0.09054935 0.10866253
0.070903495 -0.090623289 0.10873005
0.071516462 -0.090771094 0.10886508
0.072102986 -0.090992808 0.10906763
0.072739564 -0.091066688 0.10913514
0.07337568 -0.091140628 0.10920265
0.074011326 -0.091214508 0.10927017
0.068562753 -0.090133786 0.10738105
0.069229282 -0.090133786 0.10738105
0.06984669 -0.090281278 0.10751642
0.07043837 -0.090502486 0.10771945
0.071078695 -0.090576246 0.10778713
0.071668029 -0.090797469 0.10799018
0.072281457 -0.090944946 0.10812555
0.072893947 -0.091092438 0.1082609
0.073557429 -0.091092438 0.1082609
0.074194714 -0.091166154 0.10832858
0.068087086 -0.090016484 0.10636698
0.06873139 -0.090090081 0.10643482
0.069375239 -0.090163648 0.10650267
0.070018604 -0.09023723 0.10657053
0.070611924 -0.090457946 0.10677405
0.071253896 -0.090531513 0.10684189
0.071870133 -0.090678662 0.10697758
0.07243444 -0.09097296 0.10724898
0.073099792 -0.09097296 0.10724898
0.073765151 -0.09097296 0.10724898
0.074404299 -0.091046557 0.10731682
0.06820637 -0.090122074 0.10555428
0.068851843 -0.090195507 0.10562231
0.069496863 -0.09026891 0.1056903
0.070141405 -0.090342298 0.10575831
0.070810273 -0.090342298 0.10575831
0.071404055 -0.090562537 0.10596237
0.072046965 -0.09063594 0.10603037
0.072663903 -0.090782762 0.10616638
0.073279902 -0.090929583 0.10630241
0.073920935 -0.091002986 0.10637042
0.074561499 -0.091076404 0.10643844
0.067702159 -0.090082839 0.10460359
0.06834951 -0.090156063 0.10467175
0.068996392 -0.090229318 0.10473993
0.069642819 -0.090302557 0.10480811
0.07031332 -0.090302557 0.10480811
0.070959032 -0.090375811 0.10487629
0.071579248 -0.090522304 0.10501266
0.072223797 -0.090595543 0.10508083
0.072842374 -0.090742037 0.10521717
0.073511474 -0.090742037 0.10521717
0.074154615 -0.090815261 0.10528535
0.067796648 -0.090265125 0.10385559
0.068444937 -0.090338215 0.10392395
0.069116846 -0.090338215 0.10392395
0.069788761 -0.090338215 0.10392395
0.070460677 -0.090338215 0.10392395
0.071132585 -0.090338215 0.10392395
0.071804494 -0.090338215 0.10392395
0.072451152 -0.090411291 0.10399228
0.073046349 -0.090630502 0.10419729
0.073717318 -0.090630502 0.10419729
0.07436233 -0.090703592 0.10426566
0.067171276 -0.090594575 0.10324329
0.067843899 -0.090594575 0.10324329
0.068516508 -0.090594575 0.10324329
0.069189124 -0.090594575 0.10324329
0.069910392 -0.090448752 0.10310628
0.070583478 -0.090448752 0.10310628
0.071281351 -0.090375856 0.10303777
0.071954668 -0.090375856 0.10303777
0.072653241 -0.090302944 0.10296927
0.073326796 -0.090302944 0.10296927
0.074000344 -0.090302944 0.10296927
0.074673899 -0.090302944 0.10296927
0.06793838 -0.090779215 0.102493
0.068635792 -0.090706453 0.10242432
0.069309577 -0.090706453 0.10242432
0.070056342 -0.090488225 0.1022183
0.070755392 -0.090415463 0.10214961
0.071430109 -0.090415463 0.10214961
0.072129861 -0.09034273 0.10208096
0.072804816 -0.09034273 0.10208096
0.073505282 -0.090269968 0.10201228
0.074180469 -0.090269968 0.10201228
0.074907579 -0.090124488 0.10187493
0.06728822 -0.091182902 0.10194787
0.068032876 -0.090965167 0.10174136
0.068731219 -0.090892553 0.10167252
0.069405943 -0.090892553 0.10167252
0.07012932 -0.090747401 0.10153484
0.070853621 -0.090602249 0.10139717
0.071578868 -0.090457097 0.10125948
0.072280027 -0.090384498 0.10119063
0.072956391 -0.090384498 0.10119063
0.07365825 -0.09031193 0.10112181
0.074386306 -0.090166762 0.10098413
0.07506337 -0.090166762 0.10098413
0.067428552 -0.091224834 0.10105741
0.068150982 -0.09108001 0.1009194
0.068850502 -0.09100759 0.10085039
0.069526397 -0.09100759 0.10085039
0.070250943 -0.090862751 0.10071237
0.071000978 -0.090645522 0.10050537
0.071702838 -0.090573102 0.10043637
0.072405167 -0.090500683 0.10036735
0.0730827 -0.090500683 0.10036735
0.07378573 -0.090428278 0.10029835
0.074514955 -0.090283453 0.10016035
0.075193189 -0.090283453 0.10016035
0.067522101 -0.091413289 0.10030329
0.06822186 -0.091341019 0.10023411
0.068969786 -0.091124281 0.10002661
0.06964685 -0.091124281 0.10002661
0.070372567 -0.09097977 0.099888265
0.071123779 -0.090763032 0.099680766
0.071826808 -0.090690777 0.099611565
0.072530299 -0.090618521 0.099542424
0.07320901 -0.090618521 0.099542424
0.073913217 -0.090546265 0.099473238
0.074592151 -0.090546265 0.099473238
0.07529705 -0.090474024 0.099404067
0.067615651 -0.091603041 0.099547848
0.06831634 -0.091530949 0.099478528
0.0690175 -0.091458857 0.099409178
0.069719121 -0.09138678 0.099339843
0.070469871 -0.09117052 0.099131823
0.071197458 -0.091026351 0.098993152
0.071901187 -0.090954274 0.098923817
0.07258036 -0.090954274 0.098923817
0.073310055 -0.09081009 0.098785147
0.074015193 -0.090738028 0.098715812
0.074695066 -0.090738028 0.098715812
0.075400911 -0.090665936 0.098646462
0.067685813 -0.091866031 0.098860592
0.068410829 -0.091722205 0.098721594
0.069112927 -0.091650277 0.098652065
0.069839582 -0.091506436 0.098513067
0.070615813 -0.09121877 0.098235071
0.071344808 -0.091074929 0.098096073
0.07202515 -0.091074929 0.098096073
0.072705492 -0.091074929 0.098096073
0.073436365 -0.090931088 0.09795706
0.074117184 -0.090931088 0.09795706
0.074823722 -0.09085916 0.097887546
0.075504772 -0.09085916 0.097887546
0.067896314 -0.091699526 0.097754315
0.068599813 -0.091627762 0.097684637
0.069303781 -0.091556013 0.097614989
0.070056401 -0.091340736 0.09740597
0.07076177 -0.091268986 0.097336307
0.071516722 -0.091053739 0.097127318
0.072198704 -0.091053739 0.097127318
0.072880685 -0.091053739 0.097127318
0.073562674 -0.091053739 0.097127318
0.074244663 -0.091053739 0.097127318
0.074926637 -0.091053739 0.097127318
0.068106808 -0.091535971 0.096645087
0.068812415 -0.09146437 0.096575245
0.069518492 -0.091392785 0.096505418
0.07022503 -0.091321185 0.096435577
0.070956372 -0.091178015 0.096295893
0.071639523 -0.091178015 0.096295893
0.07234747 -0.09110643 0.096226066
0.073030859 -0.09110643 0.096226066
0.073688991 -0.091178015 0.096295893
0.07437215 -0.091178015 0.096295893
0.075055294 -0.091178015 0.096295893
0.069048643 -0.091232553 0.095392853
0.069733202 -0.091232553 0.095392853
0.07044185 -0.091161117 0.095322847
0.071102321 -0.091232553 0.095392853
0.071811438 -0.091161117 0.095322847
0.072471432 -0.091232553 0.095392853
0.073155992 -0.091232553 0.095392853
0.073840559 -0.091232553 0.095392853
0.074474126 -0.091375396 0.095532864
0.075158209 -0.091375396 0.095532864
0.068481021 -0.091360331 0.094557986
0.06916675 -0.091360331 0.094557986
0.069876343 -0.091289058 0.094487816
0.070586391 -0.091217816 0.094417647
0.071248271 -0.091289058 0.094487816
0.071934238 -0.091289058 0.094487816
0.072620198 -0.091289058 0.094487816
0.073306166 -0.091289058 0.094487816
0.073966861 -0.091360331 0.094557986
0.074678101 -0.091289058 0.094487816
0.06864474 -0.091347545 0.093580768
0.069379352 -0.091205388 0.09344013
0.07006719 -0.091205388 0.09344013
0.070779122 -0.091134295 0.093369782
0.071442872 -0.091205388 0.09344013
0.072081596 -0.091347545 0.093580768
0.072744168 -0.091418669 0.093651101
0.073456332 -0.091347545 0.093580768
0.0741437 -0.091347545 0.093580768
0.068925403 -0.090982497 0.092248783
0.069615588 -0.090982497 0.092248783
0.070305765 -0.090982497 0.092248783
0.070995942 -0.090982497 0.092248783
0.071637474 -0.091124356 0.092389777
0.072278067 -0.091266215 0.092530772
0.072967306 -0.091266215 0.092530772
0.073656552 -0.091266215 0.092530772
0.074345797 -0.091266215 0.092530772
0.069159284 -0.090762943 0.091054142
0.06982819 -0.090833694 0.091124788
0.070544325 -0.090762943 0.091054142
0.071164578 -0.09097521 0.091266125
0.071856402 -0.09097521 0.091266125
0.072523661 -0.091045976 0.091336772
0.073215246 -0.091045976 0.091336772
0.073881797 -0.091116741 0.091407448
0.069276229 -0.090899646 0.090210304
0.069993541 -0.090829059 0.090139478
0.070687473 -0.090829059 0.090139478
0.07135731 -0.090899646 0.090210304
0.072051004 -0.090899646 0.090210304
0.072720133 -0.090970248 0.090281144
0.073413588 -0.090970248 0.090281144
0.07405699 -0.091111436 0.090422809
0.070158899 -0.090826735 0.089151859
0.070854463 -0.090826735 0.089151859
0.071477763 -0.091038018 0.089364842
0.072172627 -0.091038018 0.089364842
0.07286749 -0.091038018 0.089364842
0.073562354 -0.091038018 0.089364842
0.074257217 -0.091038018 0.089364842
0.070395119 -0.090615958 0.087948456
0.07109303 -0.090615958 0.087948456
0.07171867 -0.090826735 0.088161916
0.072415873 -0.090826735 0.088161916
0.073113084 -0.090826735 0.088161916
0.073785499 -0.090896994 0.088233069
0.070702218 -0.090198174 0.086527735
0.071331598 -0.090408474 0.086741701
0.072007753 -0.090478584 0.086813033
0.072683454 -0.090548664 0.08688435
0.073383234 -0.090548664 0.08688435
0.074008636 -0.09075895 0.087098315
0.07098569 -0.089854643 0.085174188
0.071617879 -0.090064436 0.085388675
0.072272755 -0.090204298 0.085531667
0.072902381 -0.090414107 0.085746124
0.073579714 -0.090484008 0.085817605
0.074281365 -0.090484008 0.085817605
0.070492424 -0.089724377 0.084031671
0.071174666 -0.089794159 0.084103331
0.071784876 -0.090073213 0.084389955
0.072393216 -0.090352282 0.084676549
0.073121309 -0.090282515 0.084604919
0.073800743 -0.090352282 0.084676549
0.069493242 -0.088970691 0.082239762
0.070133857 -0.089179501 0.082455248
0.07077308 -0.089388296 0.082670689
0.071458139 -0.089457914 0.082742527
0.072071165 -0.089736298 0.083029792
0.072778672 -0.089736298 0.083029792
0.073461853 -0.089805916 0.08310163
0.074021779 -0.090223506 0.083532542
0.071647123 -0.089403361 0.08166568
0.072333589 -0.0894728 0.081737667
0.072995491 -0.089611664 0.081881642
0.073778085 -0.089403361 0.08166568
0.07441473 -0.089611664 0.081881642
0 0 0 1 0 0 0 1 0 0 0 1 0 0 0 0 0 556 1 0 0
