ply
format ascii 1.0
comment PCL generated
element vertex 585
property float x
property float y
property float z
element camera 1
property float view_px
property float view_py
property float view_pz
property float x_axisx
property float x_axisy
property float x_axisz
property float y_axisx
property float y_axisy
property float y_axisz
property float z_axisx
property float z_axisy
property float z_axisz
property float focal
property float scalex
property float scaley
property float centerx
property float centery
property int viewportx
property int viewporty
property float k1
property float k2
end_header
0.069085866 -0.088666752 0.13161692
0.069714688 -0.088666752 0.13161692
0.070343509 -0.088666752 0.13161692
0.067802958 -0.089189947 0.13123517
0.068431549 -0.089189947 0.13123517
0.069060132 -0.089189947 0.13123517
0.069688715 -0.089189947 0.13123517
0.070291109 -0.089268491 0.13129804
0.070919462 -0.089268491 0.13129804
0.071547814 -0.089268491 0.13129804
0.067149349 -0.089712799 0.13085373
0.067777701 -0.089712799 0.13085373
0.068431549 -0.089634418 0.13079068
0.069060132 -0.089634418 0.13079068
0.069688715 -0.089634418 0.13079068
0.070291109 -0.089712799 0.13085373
0.070893019 -0.089791179 0.13091677
0.071521141 -0.089791179 0.13091677
0.072122365 -0.089869559 0.13097982
0.072723113 -0.089947909 0.13104284
0.066471405 -0.090313539 0.13053584
0.067124315 -0.090235338 0.13047263
0.067752436 -0.090235338 0.13047263
0.068380557 -0.090235338 0.13047263
0.069008671 -0.090235338 0.13047263
0.069662757 -0.090157107 0.13040942
0.070291109 -0.090157107 0.13040942
0.070893019 -0.090235338 0.13047263
0.071494475 -0.090313539 0.13053584
0.072095469 -0.090391725 0.13059902
0.072695971 -0.090469956 0.13066225
0.073350765 -0.090391725 0.13059902
0.065818965 -0.090835541 0.13015521
0.066471405 -0.090757519 0.13009186
0.067099288 -0.090757519 0.13009186
0.067701921 -0.090835541 0.13015521
0.068380557 -0.090679482 0.13002849
0.068982944 -0.090757519 0.13009186
0.069636784 -0.090679482 0.13002849
0.070264906 -0.090679482 0.13002849
0.070840165 -0.090835541 0.13015521
0.071467817 -0.090835541 0.13015521
0.072095469 -0.090835541 0.13015521
0.072723113 -0.090835541 0.13015521
0.073323391 -0.090913609 0.1302186
0.073950805 -0.090913609 0.1302186
0.065818965 -0.091279358 0.12971139
0.066446617 -0.091279358 0.12971139
0.067074262 -0.091279358 0.12971139
0.067701921 -0.091279358 0.12971139
0.068329573 -0.091279358 0.12971139
0.068982944 -0.091201499 0.12964788
0.069610827 -0.091201499 0.12964788
0.070212521 -0.091279358 0.12971139
0.070866592 -0.091201499 0.12964788
0.071467817 -0.091279358 0.12971139
0.072068557 -0.091357261 0.12977494
0.072695971 -0.091357261 0.12977494
0.073323391 -0.091357261 0.12977494
0.073923208 -0.091435134 0.12983848
0.065794408 -0.091800898 0.12933129
0.066421822 -0.091800898 0.12933129
0.067049235 -0.091800898 0.12933129
0.067701921 -0.091723174 0.12926759
0.068329573 -0.091723174 0.12926759
0.068957217 -0.091723174 0.12926759
0.069584869 -0.091723174 0.12926759
0.070212521 -0.091723174 0.12926759
0.070840165 -0.091723174 0.12926759
0.071494475 -0.091645479 0.1292039
0.072095469 -0.091723174 0.12926759
0.072723113 -0.091723174 0.12926759
0.073323391 -0.091800898 0.12933129
0.073950805 -0.091800898 0.12933129
0.074578218 -0.091800898 0.12933129
0.065769851 -0.092322096 0.12895152
0.066421822 -0.092244551 0.12888765
0.067049235 -0.092244551 0.12888765
0.067676648 -0.092244551 0.12888765
0.068329573 -0.09216699 0.12882377
0.068957217 -0.09216699 0.12882377
0.069610827 -0.092089459 0.12875992
0.070238717 -0.092089459 0.12875992
0.070866592 -0.092089459 0.12875992
0.071494475 -0.092089459 0.12875992
0.072122365 -0.092089459 0.12875992
0.072750241 -0.092089459 0.12875992
0.073350765 -0.09216699 0.12882377
0.073978417 -0.09216699 0.12882377
0.074606061 -0.09216699 0.12882377
0.066397026 -0.092765585 0.12850803
0.067049235 -0.092688203 0.128444
0.067676648 -0.092688203 0.128444
0.068329573 -0.092610806 0.12837996
0.068982944 -0.092533439 0.12831593
0.069610827 -0.092533439 0.12831593
0.070264906 -0.092456073 0.1282519
0.070893019 -0.092456073 0.1282519
0.071547814 -0.092378676 0.12818785
0.072176166 -0.092378676 0.12818785
0.072750241 -0.092533439 0.12831593
0.073378131 -0.092533439 0.12831593
0.074006014 -0.092533439 0.12831593
0.066421822 -0.093131855 0.12800035
0.067049235 -0.093131855 0.12800035
0.067752436 -0.092900217 0.12780775
0.068406053 -0.092822984 0.12774354
0.069034405 -0.092822984 0.12774354
0.069688715 -0.092745766 0.12767935
0.070317306 -0.092745766 0.12767935
0.070972323 -0.092668533 0.12761512
0.071601145 -0.092668533 0.12761512
0.072203062 -0.092745766 0.12767935
0.072831646 -0.092745766 0.12767935
0.07343287 -0.092822984 0.12774354
0.074033618 -0.092900217 0.12780775
0.067099288 -0.0934214 0.12742797
0.067752436 -0.093344361 0.12736361
0.068431549 -0.093190253 0.12723486
0.069060132 -0.093190253 0.12723486
0.069792576 -0.092882037 0.12697738
0.070448309 -0.092804968 0.126913
0.071078055 -0.092804968 0.126913
0.071681149 -0.092882037 0.12697738
0.072256871 -0.09303613 0.12710613
0.072858788 -0.093113184 0.12717049
0.073460236 -0.093190253 0.12723486
0.074061222 -0.093267292 0.12729923
0.067224428 -0.093480945 0.12666132
0.06790401 -0.09332718 0.12653224
0.068584524 -0.0931734 0.12640318
0.069265977 -0.09301962 0.12627411
0.069922395 -0.092942744 0.12620957
0.070579298 -0.09286584 0.12614504
0.071183786 -0.092942744 0.12620957
0.071787819 -0.09301962 0.12627411
0.072364479 -0.0931734 0.12640318
0.072967328 -0.093250275 0.12646769
0.073542349 -0.093404055 0.12659676
0.074116431 -0.093557835 0.12672584
0.068813995 -0.09292838 0.1253754
0.069368899 -0.093158528 0.12556949
0.070104152 -0.092851654 0.12531072
0.070736483 -0.092851654 0.12531072
0.071368814 -0.092851654 0.12531072
0.071974486 -0.09292838 0.1253754
0.072552785 -0.093081817 0.12550482
0.073130138 -0.093235269 0.12563421
0.07370656 -0.093388706 0.12576361
0.068333462 -0.092915997 0.12453926
0.069094449 -0.092533216 0.12421492
0.069806308 -0.092303559 0.12402034
0.070415728 -0.092380106 0.12408519
0.071050875 -0.092380106 0.12408519
0.071633145 -0.092533216 0.12421492
0.072267823 -0.092533216 0.12421492
0.072794899 -0.09283945 0.12447439
0.070831157 -0.091606975 0.12259559
0.071417652 -0.091759741 0.12272564
0.072082505 -0.091683373 0.12266064
0.071732037 -0.091296494 0.12149186
0.072399698 -0.09122026 0.12142666
0.073041171 -0.09122026 0.12142666
0.070706874 -0.090989307 0.12038481
0.071350448 -0.090989307 0.12038481
0.071994029 -0.090989307 0.12038481
0.07266403 -0.090913266 0.12031946
0.070267268 -0.09083724 0.11940552
0.070912711 -0.09083724 0.11940552
0.071558163 -0.09083724 0.11940552
0.072151214 -0.090989038 0.11953658
0.072796188 -0.090989038 0.11953658
0.073574513 -0.090609565 0.11920892
0.069823913 -0.090687811 0.11842357
0.070445739 -0.090763554 0.11848927
0.071118556 -0.090687811 0.11842357
0.071713954 -0.090839282 0.11855495
0.072334602 -0.090915009 0.11862066
0.072981216 -0.090915009 0.11862066
0.073627844 -0.090915009 0.11862066
0.070051275 -0.090465471 0.11737311
0.070675202 -0.090541065 0.11743897
0.071298666 -0.090616614 0.11750482
0.071895704 -0.090767741 0.11763655
0.072544202 -0.090767741 0.11763655
0.073166259 -0.09084329 0.11770241
0.073814519 -0.09084329 0.11770241
0.069677144 -0.090095326 0.11618762
0.070177577 -0.090547711 0.11658378
0.070802689 -0.090623111 0.11664979
0.07145305 -0.090623111 0.11664979
0.072051495 -0.09077391 0.11678185
0.072622791 -0.09100011 0.11697993
0.073245555 -0.091075495 0.11704594
0.073894516 -0.091075495 0.11704594
0.069273077 -0.089804068 0.11506468
0.06977725 -0.090255469 0.11546184
0.070379682 -0.090405911 0.11559419
0.070981167 -0.090556368 0.11572659
0.071555965 -0.090782076 0.11592516
0.072129384 -0.091007754 0.11612374
0.072753794 -0.09108299 0.11618991
0.073351286 -0.091233462 0.11632229
0.074001186 -0.091233462 0.11632229
0.069372252 -0.089966491 0.11433658
0.069952451 -0.090191677 0.11453563
0.070531249 -0.090416893 0.11473471
0.071108639 -0.090642095 0.11493376
0.071710356 -0.090792209 0.11506648
0.072285175 -0.09101741 0.11526555
0.072858579 -0.091242626 0.11546463
0.073483452 -0.091317669 0.11553097
0.074107848 -0.091392756 0.11559734
0.068987116 -0.089605942 0.11314148
0.069496214 -0.090055361 0.1135406
0.070077591 -0.090280041 0.11374018
0.070657551 -0.090504766 0.11393975
0.071261622 -0.090654537 0.11407277
0.071839005 -0.090879261 0.11427234
0.072414994 -0.091103956 0.1144719
0.073015779 -0.091253743 0.11460495
0.073642053 -0.091328636 0.11467147
0.074267857 -0.091403559 0.11473799
0.068523854 -0.089473262 0.1121428
0.069060795 -0.089846939 0.11247624
0.06964498 -0.090071127 0.11267629
0.070202723 -0.090370074 0.11294305
0.070809126 -0.090519547 0.11307642
0.07141459 -0.090669006 0.1132098
0.071967654 -0.090967953 0.11347656
0.072544813 -0.091192141 0.11367661
0.073172972 -0.09126687 0.11374329
0.073800638 -0.091341615 0.11380999
0.068572506 -0.089790627 0.11154261
0.069183588 -0.089939758 0.11167631
0.069719359 -0.090312615 0.11201057
0.070327863 -0.090461731 0.11214426
0.070960701 -0.090536296 0.11221112
0.071542069 -0.090760022 0.11241169
0.072122037 -0.090983734 0.11261223
0.072726563 -0.091132864 0.11274594
0.07330396 -0.091356561 0.11294651
0.068105035 -0.089662224 0.1105396
0.06869413 -0.089885443 0.11074068
0.069281831 -0.090108648 0.11094174
0.069843322 -0.090406269 0.11120979
0.07047803 -0.090480655 0.11127682
0.071061745 -0.09070389 0.11147788
0.071669556 -0.090852663 0.1116119
0.072276421 -0.091001481 0.11174594
0.072856389 -0.0912247 0.11194701
0.073487349 -0.091299102 0.11201403
0.074117832 -0.091373518 0.11208105
0.068840086 -0.089907676 0.10986991
0.069404624 -0.090204641 0.11013864
0.069992088 -0.090427339 0.11034019
0.070578143 -0.090650052 0.11054173
0.07121332 -0.090724304 0.11060894
0.071797036 -0.090947002 0.11081047
0.072456531 -0.090947002 0.11081047
0.073038138 -0.09116973 0.11101204
0.073670745 -0.091243953 0.11107922
0.074355729 -0.09116973 0.11101204
0.068370037 -0.089783743 0.10886246
0.068937384 -0.090080038 0.10913184
0.069551982 -0.090228185 0.10926655
0.070165642 -0.090376332 0.10940126
0.070753336 -0.090598539 0.10960329
0.071390152 -0.090672627 0.10967065
0.071975507 -0.090894833 0.1098727
0.072636642 -0.090894833 0.1098727
0.073219895 -0.091117054 0.11007473
0.073880337 -0.091117054 0.11007473
0.074567199 -0.091042981 0.11000741
0.067465939 -0.08892341 0.1071772
0.068015516 -0.089292958 0.1075148
0.068514571 -0.089810312 0.10798739
0.069107659 -0.090032011 0.10818993
0.069723897 -0.090179831 0.10832496
0.070339195 -0.09032765 0.10845999
0.070928529 -0.09054935 0.10866253
0.071541727 -0.090697169 0.10879757
0.072153986 -0.090844989 0.1089326
0.072816752 -0.090844989 0.1089326
0.07342761 -0.090992808 0.10906763
0.074063726 -0.091066688 0.10913514
0.067678541 -0.088732705 0.10609511
0.068683207 -0.089765102 0.10704266
0.069277935 -0.089986309 0.10724568
0.069871254 -0.090207532 0.10744873
0.070537545 -0.090207532 0.10744873
0.071103722 -0.090502486 0.10771945
0.071718559 -0.090649977 0.10785481
0.072357953 -0.090723708 0.10792249
0.07299687 -0.090797469 0.10799018
0.07366129 -0.090797469 0.10799018
0.074273311 -0.090944946 0.10812555
0.068373367 -0.089133605 0.10555282
0.068900026 -0.089575052 0.10595991
0.069496863 -0.089795783 0.10616343
0.070067726 -0.090090081 0.10643482
0.070686303 -0.09023723 0.10657053
0.071278915 -0.090457946 0.10677405
0.071895391 -0.090605095 0.10690975
0.072536424 -0.090678662 0.10697758
0.07317698 -0.090752259 0.10704544
0.07384304 -0.090752259 0.10704544
0.074509099 -0.090752259 0.10704544
0.067381769 -0.088507056 0.10405801
0.06793838 -0.088874117 0.1043981
0.068468794 -0.089314565 0.10480615
0.068996392 -0.089755028 0.10521422
0.069569834 -0.090048671 0.10548629
0.070190519 -0.090195507 0.10562231
0.070810273 -0.090342298 0.10575831
0.071429089 -0.090489119 0.10589434
0.072072223 -0.090562537 0.10596237
0.072689399 -0.090709358 0.1060984
0.073331363 -0.090782762 0.10616638
0.073998831 -0.090782762 0.10616638
0.074666291 -0.090782762 0.10616638
0.066845968 -0.088544726 0.10317186
0.067475319 -0.088691205 0.10330822
0.068032876 -0.089057431 0.10364909
0.068588078 -0.089423642 0.10398999
0.069116846 -0.089863107 0.10439906
0.06971579 -0.090082839 0.10460359
0.070337877 -0.090229318 0.10473993
0.070983827 -0.090302557 0.10480811
0.071629301 -0.090375811 0.10487629
0.072223797 -0.090595543 0.10508083
0.07286787 -0.090668797 0.10514902
0.073511474 -0.090742037 0.10521717
0.074180581 -0.090742037 0.10521717
0.074849688 -0.090742037 0.10521717
0.066892281 -0.08887665 0.10255709
0.067545488 -0.08894971 0.10262541
0.068103746 -0.089315102 0.10296714
0.068659648 -0.089680508 0.10330886
0.069285482 -0.089826673 0.10344554
0.069910392 -0.089972809 0.1035822
0.070485234 -0.090265125 0.10385559
0.071157381 -0.090265125 0.10385559
0.071804494 -0.090338215 0.10392395
0.07240063 -0.090557456 0.10412897
0.073046349 -0.090630502 0.10419729
0.073691584 -0.090703592 0.10426566
0.074336372 -0.090776667 0.104334
0.075033076 -0.090703592 0.10426566
0.066307366 -0.089063421 0.10180461
0.066938587 -0.089209244 0.10194165
0.067568876 -0.089355081 0.10207866
0.068174608 -0.089573801 0.10228418
0.068826646 -0.089646727 0.10235269
0.069405943 -0.089938357 0.10262671
0.070007689 -0.090157107 0.10283226
0.070657149 -0.090230018 0.10290076
0.071330935 -0.090230018 0.10290076
0.071979687 -0.090302944 0.10296927
0.072602727 -0.090448752 0.10310628
0.07322482 -0.090594575 0.10324329
0.073897429 -0.090594575 0.10324329
0.07454408 -0.090667501 0.10331181
0.065697886 -0.089324281 0.10111952
0.066376127 -0.089324281 0.10111952
0.066984899 -0.089542508 0.10132553
0.067662433 -0.089542508 0.10132553
0.068292722 -0.089688003 0.10146289
0.068922073 -0.089833498 0.10160024
0.069550484 -0.089979008 0.10173757
0.070177965 -0.090124488 0.10187493
0.070804507 -0.090269968 0.10201228
0.071479701 -0.090269968 0.10201228
0.072129861 -0.09034273 0.10208096
0.072754294 -0.090488225 0.1022183
0.073377796 -0.09063372 0.10235564
0.074051805 -0.09063372 0.10235564
0.074725829 -0.09063372 0.10235564
0.065765947 -0.089586109 0.10043339
0.066421963 -0.089658692 0.10050225
0.067077518 -0.089731276 0.10057107
0.067732595 -0.08980386 0.10063994
0.068410829 -0.08980386 0.10063994
0.0690175 -0.090021595 0.10084644
0.069670938 -0.090094179 0.1009153
0.070275269 -0.09031193 0.10112181
0.070951864 -0.09031193 0.10112181
0.071603663 -0.090384498 0.10119063
0.072254993 -0.090457097 0.10125948
0.072905868 -0.090529665 0.10132831
0.073556267 -0.090602249 0.10139717
0.074180469 -0.090747401 0.10153484
0.074855663 -0.090747401 0.10153484
0.065788627 -0.089993775 0.099884316
0.066467807 -0.089993775 0.099884316
0.067123823 -0.09006618 0.099953324
0.067802764 -0.09006618 0.099953324
0.06845808 -0.090138614 0.10002233
0.069112927 -0.090211019 0.10009132
0.069767304 -0.090283453 0.10016035
0.070445538 -0.090283453 0.10016035
0.071074657 -0.090428278 0.10029835
0.071752422 -0.090428278 0.10029835
0.072405167 -0.090500683 0.10036735
0.073032178 -0.090645522 0.10050537
0.073709242 -0.090645522 0.10050537
0.074334845 -0.090790361 0.10064338
0.07501144 -0.090790361 0.10064338
0.065176807 -0.090257287 0.099196553
0.065834001 -0.090329513 0.099265724
0.066467807 -0.090474024 0.099404067
0.067193285 -0.090329513 0.099265724
0.067872927 -0.090329513 0.099265724
0.068505324 -0.090474024 0.099404067
0.069184497 -0.090474024 0.099404067
0.069839582 -0.090546265 0.099473238
0.070518523 -0.090546265 0.099473238
0.071197458 -0.090546265 0.099473238
0.071851596 -0.090618521 0.099542424
0.072480246 -0.090763032 0.099680766
0.073158488 -0.090763032 0.099680766
0.07378573 -0.090907529 0.099819094
0.074463494 -0.090907529 0.099819094
0.075141266 -0.090907529 0.099819094
0.065879375 -0.090665936 0.098646462
0.066536561 -0.090738028 0.098715812
0.067216434 -0.090738028 0.098715812
0.067896314 -0.090738028 0.098715812
0.068576187 -0.090738028 0.098715812
0.06925606 -0.090738028 0.098715812
0.069960035 -0.090665936 0.098646462
0.070591494 -0.09081009 0.098785147
0.071271136 -0.09081009 0.098785147
0.071950771 -0.09081009 0.098785147
0.072555333 -0.091026351 0.098993152
0.073234275 -0.091026351 0.098993152
0.073887713 -0.091098443 0.099062502
0.074592151 -0.091026351 0.098993152
0.065902054 -0.091074929 0.098096073
0.066559486 -0.091146842 0.098165557
0.067262746 -0.091074929 0.098096073
0.067989863 -0.090931088 0.09795706
0.068670683 -0.090931088 0.09795706
0.069351494 -0.090931088 0.09795706
0.070056401 -0.09085916 0.097887546
0.070737444 -0.09085916 0.097887546
0.071393929 -0.090931088 0.09795706
0.07202515 -0.091074929 0.098096073
0.072680473 -0.091146842 0.098165557
0.073385842 -0.091074929 0.098096073
0.074040696 -0.091146842 0.098165557
0.0747208 -0.091146842 0.098165557
0.065992802 -0.091268986 0.097336307
0.066674083 -0.091268986 0.097336307
0.067355365 -0.091268986 0.097336307
0.068060026 -0.091197252 0.097266644
0.068741545 -0.091197252 0.097266644
0.069470771 -0.091053739 0.097127318
0.07015276 -0.091053739 0.097127318
0.070859075 -0.090981975 0.097057641
0.071516722 -0.091053739 0.097127318
0.07214912 -0.091197252 0.097266644
0.072830632 -0.091197252 0.097266644
0.073562674 -0.091053739 0.097127318
0.074193664 -0.091197252 0.097266644
0.06610623 -0.091392785 0.096505418
0.066788681 -0.091392785 0.096505418
0.067494288 -0.091321185 0.096435577
0.068176977 -0.091321185 0.096435577
0.068906911 -0.091178015 0.096295893
0.069590062 -0.091178015 0.096295893
0.070297301 -0.09110643 0.096226066
0.070980698 -0.09110643 0.096226066
0.071639523 -0.091178015 0.096295893
0.072322682 -0.091178015 0.096295893
0.073005833 -0.091178015 0.096295893
0.073714249 -0.09110643 0.096226066
0.066242345 -0.091446817 0.09560284
0.066926204 -0.091446817 0.09560284
0.067633212 -0.091375396 0.095532864
0.068317302 -0.091375396 0.095532864
0.069001392 -0.091375396 0.095532864
0.069733202 -0.091232553 0.095392853
0.07044185 -0.091161117 0.095322847
0.071126647 -0.091161117 0.095322847
0.07178688 -0.091232553 0.095392853
0.072496235 -0.091161117 0.095322847
0.073181026 -0.091161117 0.095322847
0.073865823 -0.091161117 0.095322847
0.067017883 -0.091645345 0.094838619
0.06772583 -0.091574088 0.094768465
0.068410859 -0.091574088 0.094768465
0.06916675 -0.091360331 0.094557986
0.069876343 -0.091289058 0.094487816
0.070586391 -0.091217816 0.094417647
0.071272597 -0.091217816 0.094417647
0.071934238 -0.091289058 0.094487816
0.072620198 -0.091289058 0.094487816
0.073331185 -0.091217816 0.094417647
0.074017391 -0.091217816 0.094417647
0.067155398 -0.091703027 0.093932435
0.06788791 -0.091560841 0.093791768
0.06857457 -0.091560841 0.093791768
0.06930849 -0.091418669 0.093651101
0.07006719 -0.091205388 0.09344013
0.070755027 -0.091205388 0.09344013
0.071394227 -0.091347545 0.093580768
0.072081596 -0.091347545 0.093580768
0.072768964 -0.091347545 0.093580768
0.073506378 -0.091205388 0.09344013
0.074194223 -0.091205388 0.09344013
0.066582635 -0.091833591 0.093094721
0.067338765 -0.091620833 0.092883244
0.068049982 -0.091549918 0.092812747
0.068761684 -0.091478974 0.092742249
0.069544718 -0.091195285 0.092460245
0.070234194 -0.091195285 0.092460245
0.070947759 -0.091124356 0.092389777
0.071613155 -0.091195285 0.092460245
0.072302625 -0.091195285 0.092460245
0.072992101 -0.091195285 0.092460245
0.073656552 -0.091266215 0.092530772
0.074345797 -0.091266215 0.092530772
0.067499205 -0.091612056 0.091902077
0.068235219 -0.091470525 0.091760755
0.068972178 -0.091329008 0.091619417
0.06968645 -0.091258273 0.091548771
0.070448905 -0.091045976 0.091336772
0.07114049 -0.091045976 0.091336772
0.07180775 -0.091116741 0.091407448
0.072499096 -0.091116741 0.091407448
0.073190451 -0.091116741 0.091407448
0.073831744 -0.091258273 0.091548771
0.074497372 -0.091329008 0.091619417
0.067682564 -0.091535002 0.090847746
0.068397298 -0.0914644 0.090776935
0.069159284 -0.09125264 0.090564445
0.069946297 -0.090970248 0.090281144
0.070639752 -0.090970248 0.090281144
0.071333215 -0.090970248 0.090281144
0.071978025 -0.091111436 0.090422809
0.072646454 -0.091182038 0.090493605
0.073339209 -0.091182038 0.090493605
0.074006937 -0.09125264 0.090564445
0.068582535 -0.091390163 0.089719787
0.069369778 -0.091108456 0.089435846
0.070088036 -0.091038018 0.089364842
0.070806749 -0.090967596 0.089293852
0.071477763 -0.091038018 0.089364842
0.072148301 -0.091108456 0.089435846
0.072818369 -0.091178879 0.089506805
0.073512763 -0.091178879 0.089506805
0.074207157 -0.091178879 0.089506805
0.069416553 -0.09145911 0.088802338
0.070253395 -0.091037527 0.088375375
0.070997611 -0.090896994 0.088233069
0.071694583 -0.090896994 0.088233069
0.072367229 -0.090967268 0.088304237
0.073063962 -0.090967268 0.088304237
0.073735908 -0.091037527 0.088375375
0.069720604 -0.091039345 0.087383613
0.070513241 -0.09075895 0.087098315
0.071260035 -0.090618744 0.086955667
0.071911395 -0.09075895 0.087098315
0.072610483 -0.09075895 0.087098315
0.073284999 -0.090829059 0.087169647
0.073909461 -0.091039345 0.087383613
0.070071429 -0.090484008 0.085817605
0.070820332 -0.090344176 0.085674644
0.071522452 -0.090344176 0.085674644
0.072200485 -0.090414107 0.085746124
0.072805077 -0.090693831 0.086032078
0.073530592 -0.090623885 0.085960582
0.070492424 -0.089724377 0.084031671
0.071151048 -0.089863911 0.084174976
0.07176102 -0.09014298 0.0844616
0.072393216 -0.090352282 0.084676549
0.073024005 -0.090561569 0.084891543
0.073727064 -0.090561569 0.084891543
0.070157014 -0.089109898 0.082383409
0.070819855 -0.089249104 0.082527041
0.071458139 -0.089457914 0.082742527
0.072071165 -0.089736298 0.083029792
0.072850943 -0.089527503 0.082814336
0.073510505 -0.089666709 0.082957983
0 0 0 1 0 0 0 1 0 0 0 1 0 0 0 0 0 585 1 0 0
