ply
format ascii 1.0
comment PCL generated
element vertex 458
property float x
property float y
property float z
element camera 1
property float view_px
property float view_py
property float view_pz
property float x_axisx
property float x_axisy
property float x_axisz
property float y_axisx
property float y_axisy
property float y_axisz
property float z_axisx
property float z_axisy
property float z_axisz
property float focal
property float scalex
property float scaley
property float centerx
property float centery
property int viewportx
property int viewporty
property float k1
property float k2
end_header
0.068508044 -0.0889543 0.13104652
0.069137327 -0.0889543 0.13104652
0.069766618 -0.0889543 0.13104652
0.070395909 -0.0889543 0.13104652
0.071025193 -0.0889543 0.13104652
0.071627811 -0.089032859 0.1311094
0.067802958 -0.089634418 0.13079068
0.068457045 -0.089556038 0.13072763
0.069085866 -0.089556038 0.13072763
0.069714688 -0.089556038 0.13072763
0.070369706 -0.089477658 0.13066459
0.070972323 -0.089556038 0.13072763
0.071574479 -0.089634418 0.13079068
0.072229974 -0.089556038 0.13072763
0.072804518 -0.089712799 0.13085373
0.067124315 -0.090235338 0.13047263
0.067777701 -0.090157107 0.13040942
0.068431549 -0.090078905 0.13034621
0.069060132 -0.090078905 0.13034621
0.069688715 -0.090078905 0.13034621
0.070343509 -0.090000674 0.130283
0.070945889 -0.090078905 0.13034621
0.071574479 -0.090078905 0.13034621
0.072176166 -0.090157107 0.13040942
0.072750241 -0.090313539 0.13053584
0.073378131 -0.090313539 0.13053584
0.067099288 -0.090757519 0.13009186
0.067727178 -0.090757519 0.13009186
0.068380557 -0.090679482 0.13002849
0.069008671 -0.090679482 0.13002849
0.069688715 -0.090523377 0.12990174
0.070317306 -0.090523377 0.12990174
0.070919462 -0.090601414 0.1299651
0.071574479 -0.090523377 0.12990174
0.072176166 -0.090601414 0.1299651
0.072750241 -0.090757519 0.13009186
0.073350765 -0.090835541 0.13015521
0.073978417 -0.090835541 0.13015521
0.066421822 -0.091357261 0.12977494
0.067074262 -0.091279358 0.12971139
0.067701921 -0.091279358 0.12971139
0.068329573 -0.091279358 0.12971139
0.068982944 -0.091201499 0.12964788
0.069636784 -0.091123626 0.12958434
0.070238717 -0.091201499 0.12964788
0.070893019 -0.091123626 0.12958434
0.071521141 -0.091123626 0.12958434
0.072122365 -0.091201499 0.12964788
0.072750241 -0.091201499 0.12964788
0.073350765 -0.091279358 0.12971139
0.073950805 -0.091357261 0.12977494
0.074550383 -0.091435134 0.12983848
0.066372231 -0.091956347 0.12945871
0.067024209 -0.091878608 0.12939501
0.067651391 -0.091878608 0.12939501
0.068278573 -0.091878608 0.12939501
0.068957217 -0.091723174 0.12926759
0.069610827 -0.091645479 0.1292039
0.070238717 -0.091645479 0.1292039
0.070866592 -0.091645479 0.1292039
0.071494475 -0.091645479 0.1292039
0.072122365 -0.091645479 0.1292039
0.072723113 -0.091723174 0.12926759
0.073350765 -0.091723174 0.12926759
0.073950805 -0.091800898 0.12933129
0.074550383 -0.091878608 0.12939501
0.066372231 -0.092399657 0.1290154
0.066999175 -0.092399657 0.1290154
0.067651391 -0.092322096 0.12895152
0.068278573 -0.092322096 0.12895152
0.068931475 -0.092244551 0.12888765
0.069584869 -0.09216699 0.12882377
0.070238717 -0.092089459 0.12875992
0.070866592 -0.092089459 0.12875992
0.071494475 -0.092089459 0.12875992
0.072122365 -0.092089459 0.12875992
0.072723113 -0.09216699 0.12882377
0.073323391 -0.092244551 0.12888765
0.073950805 -0.092244551 0.12888765
0.074550383 -0.092322096 0.12895152
0.066999175 -0.092842981 0.12857208
0.067651391 -0.092765585 0.12850803
0.068278573 -0.092765585 0.12850803
0.068957217 -0.092610806 0.12837996
0.069584869 -0.092610806 0.12837996
0.070238717 -0.092533439 0.12831593
0.070866592 -0.092533439 0.12831593
0.071521141 -0.092456073 0.1282519
0.072122365 -0.092533439 0.12831593
0.072723113 -0.092610806 0.12837996
0.073350765 -0.092610806 0.12837996
0.073950805 -0.092688203 0.128444
0.074550383 -0.092765585 0.12850803
0.066999175 -0.093286291 0.12812877
0.067651391 -0.093209058 0.12806454
0.068304069 -0.093131855 0.12800035
0.068957217 -0.093054622 0.12793614
0.069636784 -0.092900217 0.12780775
0.070291109 -0.092822984 0.12774354
0.070919462 -0.092822984 0.12774354
0.071547814 -0.092822984 0.12774354
0.072176166 -0.092822984 0.12774354
0.072750241 -0.092977419 0.12787196
0.073350765 -0.093054622 0.12793614
0.073950805 -0.093131855 0.12800035
0.067676648 -0.093575507 0.1275567
0.068329573 -0.093498439 0.12749232
0.069008671 -0.093344361 0.12736361
0.069662757 -0.093267292 0.12729923
0.070291109 -0.093267292 0.12729923
0.070945889 -0.093190253 0.12723486
0.071574479 -0.093190253 0.12723486
0.072203062 -0.093190253 0.12723486
0.072804518 -0.093267292 0.12729923
0.073350765 -0.093498439 0.12749232
0.073978417 -0.093498439 0.12749232
0.067828223 -0.093557835 0.12672584
0.068482541 -0.093480945 0.12666132
0.069137327 -0.093404055 0.12659676
0.069922395 -0.092942744 0.12620957
0.070526898 -0.09301962 0.12627411
0.071078055 -0.093250275 0.12646769
0.071734481 -0.0931734 0.12640318
0.072256871 -0.093480945 0.12666132
0.072885916 -0.093480945 0.12666132
0.073405497 -0.093788505 0.12691946
0.068712004 -0.093235269 0.12563421
0.069368899 -0.093158528 0.12556949
0.070026256 -0.093081817 0.12550482
0.070631698 -0.093158528 0.12556949
0.071236648 -0.093235269 0.12563421
0.071841151 -0.093311965 0.12569889
0.072445177 -0.093388706 0.12576361
0.069196433 -0.092226982 0.12395546
0.069832042 -0.092226982 0.12395546
0.070441693 -0.092303559 0.12402034
0.070893683 -0.09283945 0.12447439
0.071474545 -0.092992559 0.12460414
0.072107822 -0.092992559 0.12460414
0.070165284 -0.091140836 0.11966763
0.070835523 -0.09106493 0.1196021
0.071454301 -0.091140836 0.11966763
0.072125018 -0.09106493 0.1196021
0.072769761 -0.09106493 0.1196021
0.073414512 -0.09106493 0.1196021
0.069672339 -0.091142192 0.11881775
0.070369251 -0.090990737 0.11868635
0.070989907 -0.091066465 0.11875202
0.071636058 -0.091066465 0.11875202
0.072256014 -0.091142192 0.11881775
0.072901927 -0.091142192 0.11881775
0.07354784 -0.091142192 0.11881775
0.069251671 -0.090918869 0.11776827
0.069899701 -0.090918869 0.11776827
0.07054773 -0.090918869 0.11776827
0.071195744 -0.090918869 0.11776827
0.071817815 -0.090994418 0.11783411
0.072387002 -0.091221109 0.11803171
0.07306052 -0.091145545 0.11796583
0.073681176 -0.091221109 0.11803171
0.07435517 -0.091145545 0.11796583
0.069476917 -0.09069851 0.11671583
0.070101798 -0.09077391 0.11678185
0.070751697 -0.09077391 0.11678185
0.071324393 -0.09100011 0.11697993
0.071973592 -0.09100011 0.11697993
0.072570391 -0.091150895 0.11711198
0.073219113 -0.091150895 0.11711198
0.073841184 -0.091226295 0.11717799
0.074489675 -0.091226295 0.11717799
0.069677144 -0.090556368 0.11572659
0.070253365 -0.090782076 0.11592516
0.07085368 -0.090932548 0.11605754
0.071504503 -0.090932548 0.11605754
0.072103426 -0.09108299 0.11618991
0.072701395 -0.091233462 0.11632229
0.073298417 -0.091383904 0.11645468
0.073947854 -0.091383904 0.11645468
0.074597284 -0.091383904 0.11645468
0.069248281 -0.090341821 0.11466834
0.069802284 -0.090642095 0.11493376
0.070430197 -0.090717167 0.11500014
0.071032159 -0.090867266 0.11513284
0.071633168 -0.09101741 0.11526555
0.072207272 -0.091242626 0.11546463
0.072832383 -0.091317669 0.11553097
0.073430583 -0.091467813 0.11566368
0.074054524 -0.09154287 0.11573003
0.074704893 -0.09154287 0.11573003
0.069347449 -0.090504766 0.11393975
0.069952451 -0.090654537 0.11407277
0.070556514 -0.090804338 0.11420581
0.071185127 -0.090879261 0.11427234
0.071761817 -0.091103956 0.1144719
0.072363064 -0.091253743 0.11460495
0.072963379 -0.091403559 0.11473799
0.073589183 -0.091478452 0.11480451
0.07418786 -0.091628253 0.11493756
0.069471426 -0.090594262 0.1131431
0.07010261 -0.090669006 0.1132098
0.070733346 -0.090743735 0.11327648
0.071312606 -0.090967953 0.11347656
0.071890466 -0.091192141 0.11367661
0.072492883 -0.091341615 0.11380999
0.073094368 -0.091491088 0.11394337
0.073694907 -0.091640562 0.11407673
0.074347854 -0.091640562 0.11407673
0.069011673 -0.090461731 0.11214426
0.069620185 -0.090610877 0.11227798
0.07022775 -0.090760022 0.11241169
0.070834383 -0.090909168 0.1125454
0.071465589 -0.090983734 0.11261223
0.072044849 -0.09120743 0.11281279
0.072596744 -0.091505706 0.1130802
0.073225372 -0.091580257 0.11314705
0.073853508 -0.091654837 0.11321391
0.074481197 -0.091729403 0.11328076
0.069085352 -0.09070389 0.11147788
0.069719359 -0.090778291 0.11154489
0.070352897 -0.090852663 0.1116119
0.070985958 -0.090927079 0.11167893
0.071593069 -0.091075897 0.11181296
0.072173499 -0.091299102 0.11201403
0.072752535 -0.091522306 0.11221506
0.073382556 -0.091596708 0.1122821
0.074012108 -0.091671109 0.11234911
0.069208153 -0.090798512 0.11067611
0.069868118 -0.090798512 0.11067611
0.07047803 -0.090947002 0.11081047
0.071137533 -0.090947002 0.11081047
0.071720548 -0.09116973 0.11101204
0.072302148 -0.091392428 0.11121358
0.07290832 -0.091540903 0.11134796
0.073513545 -0.091689393 0.11148232
0.074144274 -0.091763616 0.11154951
0.069404624 -0.090672627 0.10967065
0.070041671 -0.090746686 0.10973799
0.070678249 -0.09082076 0.10980535
0.071263842 -0.091042981 0.11000741
0.071822532 -0.091339275 0.11027679
0.072456531 -0.091413334 0.11034414
0.073064104 -0.091561481 0.11047885
0.073696941 -0.09163557 0.1105462
0.069010362 -0.09032765 0.10845999
0.069625661 -0.09047547 0.10859503
0.070264816 -0.09054935 0.10866253
0.070878476 -0.090697169 0.10879757
0.071440674 -0.090992808 0.10906763
0.072026506 -0.091214508 0.10927017
0.072662368 -0.091288432 0.10933769
0.073245853 -0.091510147 0.10954024
0.073880337 -0.091584057 0.10960773
0.069180638 -0.090281278 0.10751642
0.069822133 -0.090355009 0.10758407
0.07043837 -0.090502486 0.10771945
0.071003608 -0.090797469 0.10799018
0.071541727 -0.091166154 0.10832858
0.072204977 -0.091166154 0.10832858
0.072868221 -0.091166154 0.10832858
0.073505498 -0.091239914 0.10839626
0.069399558 -0.090090081 0.10643482
0.070043169 -0.090163648 0.10650267
0.070661515 -0.090310797 0.10663836
0.071228862 -0.090605095 0.10690975
0.071844868 -0.090752259 0.10704544
0.072485432 -0.090825826 0.10711327
0.073099792 -0.09097296 0.10724898
0.074351914 -0.091193691 0.10745251
0.068948209 -0.08990185 0.10535026
0.069618486 -0.08990185 0.10535026
0.070215084 -0.090122074 0.10555428
0.070884652 -0.090122074 0.10555428
0.071429089 -0.090489119 0.10589434
0.072046965 -0.09063594 0.10603037
0.072714895 -0.09063594 0.10603037
0.073946901 -0.090929583 0.10630241
0.069044575 -0.090082839 0.10460359
0.06971579 -0.090082839 0.10460359
0.070362441 -0.090156063 0.10467175
0.070983827 -0.090302557 0.10480811
0.071629301 -0.090375811 0.10487629
0.072223797 -0.090595543 0.10508083
0.072893374 -0.090595543 0.10508083
0.073537201 -0.090668797 0.10514902
0.069285482 -0.089826673 0.10344554
0.069934718 -0.089899749 0.10351388
0.070534356 -0.09011896 0.10371891
0.071182176 -0.09019205 0.10378726
0.071879588 -0.09011896 0.10371891
0.072476409 -0.090338215 0.10392395
0.073173828 -0.090265125 0.10385559
0.073794506 -0.090411291 0.10399228
0.069381848 -0.090011299 0.10269523
0.070007689 -0.090157107 0.10283226
0.070657149 -0.090230018 0.10290076
0.07135573 -0.090157107 0.10283226
0.072029747 -0.090157107 0.10283226
0.072678514 -0.090230018 0.10290076
0.073326796 -0.090302944 0.10296927
0.074000344 -0.090302944 0.10296927
0.068778932 -0.090269968 0.10201228
0.069454126 -0.090269968 0.10201228
0.07012932 -0.090269968 0.10201228
0.070853621 -0.090124488 0.10187493
0.071529284 -0.090124488 0.10187493
0.07220494 -0.090124488 0.10187493
0.072830088 -0.090269968 0.10201228
0.073505282 -0.090269968 0.10201228
0.074180469 -0.090269968 0.10201228
0.06822186 -0.090384498 0.10119063
0.068874359 -0.090457097 0.10125948
0.06957458 -0.090384498 0.10119063
0.070250943 -0.090384498 0.10119063
0.070951864 -0.09031193 0.10112181
0.071603663 -0.090384498 0.10119063
0.072280027 -0.090384498 0.10119063
0.072956391 -0.090384498 0.10119063
0.073632762 -0.090384498 0.10119063
0.074334845 -0.09031193 0.10112181
0.068993635 -0.090573102 0.10043637
0.069695033 -0.090500683 0.10036735
0.070372567 -0.090500683 0.10036735
0.0710501 -0.090500683 0.10036735
0.071727633 -0.090500683 0.10036735
0.072405167 -0.090500683 0.10036735
0.073057435 -0.090573102 0.10043637
0.073734738 -0.090573102 0.10043637
0.074412033 -0.090573102 0.10043637
0.06908907 -0.090763032 0.099680766
0.069767304 -0.090763032 0.099680766
0.070469871 -0.090690777 0.099611565
0.071148336 -0.090690777 0.099611565
0.071826808 -0.090690777 0.099611565
0.07250528 -0.090690777 0.099611565
0.073183753 -0.090690777 0.099611565
0.073862225 -0.090690777 0.099611565
0.07454069 -0.090690777 0.099611565
0.06916064 -0.091026351 0.098993152
0.069911852 -0.09081009 0.098785147
0.070591494 -0.09081009 0.098785147
0.071271136 -0.09081009 0.098785147
0.071901187 -0.090954274 0.098923817
0.07258036 -0.090954274 0.098923817
0.073310055 -0.09081009 0.098785147
0.073989704 -0.09081009 0.098785147
0.074669339 -0.09081009 0.098785147
0.069351494 -0.090931088 0.09795706
0.070032306 -0.090931088 0.09795706
0.070713118 -0.090931088 0.09795706
0.071344808 -0.091074929 0.098096073
0.07202515 -0.091074929 0.098096073
0.072705492 -0.091074929 0.098096073
0.073436365 -0.090931088 0.09795706
0.074117184 -0.090931088 0.09795706
0.074746527 -0.091074929 0.098096073
0.069590062 -0.090694949 0.096778959
0.070273213 -0.090694949 0.096778959
0.070907719 -0.090838462 0.0969183
0.071565844 -0.090910226 0.096987978
0.072223507 -0.090981975 0.097057641
0.072880685 -0.091053739 0.097127318
0.073587939 -0.090981975 0.097057641
0.074244663 -0.091053739 0.097127318
0.07044185 -0.090676889 0.095807076
0.071102321 -0.090748489 0.095876917
0.071713202 -0.090963259 0.096086398
0.07234747 -0.09110643 0.096226066
0.073055878 -0.091034859 0.096156254
0.073714249 -0.09110643 0.096226066
0.074423134 -0.091034859 0.096156254
0.069947906 -0.090589747 0.094762862
0.070634574 -0.090589747 0.094762862
0.071248271 -0.090804011 0.094972864
0.071835995 -0.091089696 0.095252857
0.072521023 -0.091089696 0.095252857
0.073181026 -0.091161117 0.095322847
0.073865823 -0.091161117 0.095322847
0.074550621 -0.091161117 0.095322847
0.068761684 -0.090505227 0.093715996
0.069426604 -0.0905765 0.093786165
0.070114903 -0.0905765 0.093786165
0.070779122 -0.090647757 0.09385632
0.071394227 -0.090861514 0.094066799
0.072032474 -0.091004029 0.094207138
0.072644986 -0.091217816 0.094417647
0.073331185 -0.091217816 0.094417647
0.074017391 -0.091217816 0.094417647
0.068925403 -0.090494469 0.09273681
0.069615588 -0.090494469 0.09273681
0.070258051 -0.090636656 0.092877477
0.070899576 -0.090778843 0.093018144
0.071564503 -0.090849921 0.093088448
0.072179824 -0.091063201 0.093299463
0.072843343 -0.091134295 0.093369782
0.073506378 -0.091205388 0.09344013
0.074194223 -0.091205388 0.09344013
0.074831076 -0.091347545 0.093580768
0.069065735 -0.090556949 0.091825798
0.06975732 -0.090556949 0.091825798
0.070425048 -0.090627879 0.09189631
0.071068212 -0.090769738 0.092037305
0.071734779 -0.090840638 0.092107788
0.072376303 -0.090982497 0.092248783
0.073016897 -0.091124356 0.092389777
0.073681578 -0.091195285 0.092460245
0.074371062 -0.091195285 0.092460245
0.069182672 -0.090692177 0.090983465
0.069899052 -0.090621427 0.090912819
0.070568189 -0.090692177 0.090983465
0.071260944 -0.090692177 0.090983465
0.071905054 -0.090833694 0.091124788
0.072548218 -0.09097521 0.091266125
0.073240034 -0.09097521 0.091266125
0.073906831 -0.091045976 0.091336772
0.069276229 -0.090899646 0.090210304
0.069993541 -0.090829059 0.090139478
0.070687473 -0.090829059 0.090139478
0.071381398 -0.090829059 0.090139478
0.072051004 -0.090899646 0.090210304
0.072720133 -0.090970248 0.090281144
0.073413588 -0.090970248 0.090281144
0.074107051 -0.090970248 0.090281144
0.069393165 -0.091038018 0.089364842
0.070111655 -0.090967596 0.089293852
0.070806749 -0.090967596 0.089293852
0.071501851 -0.090967596 0.089293852
0.072172627 -0.091038018 0.089364842
0.072892047 -0.090967596 0.089293852
0.073562354 -0.091038018 0.089364842
0.074257217 -0.091038018 0.089364842
0.069556884 -0.091037527 0.088375375
0.070324257 -0.090826735 0.088161916
0.07102146 -0.090826735 0.088161916
0.071694583 -0.090896994 0.088233069
0.072391555 -0.090896994 0.088233069
0.073088527 -0.090896994 0.088233069
0.073760696 -0.090967268 0.088304237
0.06981416 -0.09075895 0.087098315
0.070607729 -0.090478584 0.086813033
0.071283884 -0.090548664 0.08688435
0.071983665 -0.090548664 0.08688435
0.072610483 -0.09075895 0.087098315
0.073309556 -0.09075895 0.087098315
0.074008636 -0.09075895 0.087098315
0.070867576 -0.090204298 0.085531667
0.071522452 -0.090344176 0.085674644
0.072176397 -0.090484008 0.085817605
0.072829403 -0.090623885 0.085960582
0.073506027 -0.090693831 0.086032078
0.071151048 -0.089863911 0.084174976
0.07176102 -0.09014298 0.0844616
0.072369121 -0.090422049 0.084748223
0.073024005 -0.090561569 0.084891543
0.073702507 -0.090631336 0.084963188
0.070819855 -0.089249104 0.082527041
0.071458139 -0.089457914 0.082742527
0.072071165 -0.089736298 0.083029792
0.072754577 -0.089805916 0.08310163
0 0 0 1 0 0 0 1 0 0 0 1 0 0 0 0 0 458 1 0 0
