ply
format ascii 1.0
comment PCL generated
element vertex 560
property float x
property float y
property float z
element camera 1
property float view_px
property float view_py
property float view_pz
property float x_axisx
property float x_axisy
property float x_axisz
property float y_axisx
property float y_axisy
property float y_axisz
property float z_axisx
property float z_axisy
property float z_axisz
property float focal
property float scalex
property float scaley
property float centerx
property float centery
property int viewportx
property int viewporty
property float k1
property float k2
end_header
0.069662757 -0.088824168 0.13174236
0.070317306 -0.088745475 0.13167964
0.070945889 -0.088745475 0.13167964
0.067676648 -0.089582652 0.13154955
0.068329573 -0.089504093 0.13148665
0.068982944 -0.089425579 0.1314238
0.069636784 -0.089347035 0.13136092
0.070291109 -0.089268491 0.13129804
0.070919462 -0.089268491 0.13129804
0.071574479 -0.089189947 0.13123517
0.072176166 -0.089268491 0.13129804
0.066974156 -0.09026143 0.13129503
0.067626126 -0.090183064 0.13123199
0.068304069 -0.090026304 0.1311059
0.068982944 -0.089869559 0.13097982
0.069610827 -0.089869559 0.13097982
0.070264906 -0.089791179 0.13091677
0.070893019 -0.089791179 0.13091677
0.071521141 -0.089791179 0.13091677
0.072149262 -0.089791179 0.13091677
0.072777376 -0.089791179 0.13091677
0.073378131 -0.089869559 0.13097982
0.066949122 -0.090782821 0.13091509
0.067626126 -0.090626389 0.13078867
0.068278573 -0.090548158 0.13072546
0.068957217 -0.090391725 0.13059902
0.069584869 -0.090391725 0.13059902
0.070238717 -0.090313539 0.13053584
0.070866592 -0.090313539 0.13053584
0.071521141 -0.090235338 0.13047263
0.072122365 -0.090313539 0.13053584
0.072750241 -0.090313539 0.13053584
0.073350765 -0.090391725 0.13059902
0.073978417 -0.090391725 0.13059902
0.066297852 -0.09130384 0.13053548
0.066949122 -0.091225803 0.13047211
0.067600869 -0.091147751 0.13040872
0.068253078 -0.091069698 0.13034534
0.068931475 -0.090913609 0.1302186
0.069558896 -0.090913609 0.1302186
0.070212521 -0.090835541 0.13015521
0.070840165 -0.090835541 0.13015521
0.071467817 -0.090835541 0.13015521
0.072122365 -0.090757519 0.13009186
0.072695971 -0.090913609 0.1302186
0.073323391 -0.090913609 0.1302186
0.073923208 -0.090991646 0.13028197
0.074550383 -0.090991646 0.13028197
0.066273056 -0.091824561 0.1301562
0.066924095 -0.091746658 0.13009265
0.067575604 -0.091668785 0.13002911
0.068227582 -0.091590896 0.12996557
0.068880014 -0.091513023 0.12990203
0.069532938 -0.091435134 0.12983848
0.070212521 -0.091279358 0.12971139
0.070840165 -0.091279358 0.12971139
0.071441144 -0.091357261 0.12977494
0.072095469 -0.091279358 0.12971139
0.072695971 -0.091357261 0.12977494
0.073323391 -0.091357261 0.12977494
0.073950805 -0.091357261 0.12977494
0.07452254 -0.091513023 0.12990203
0.066248268 -0.09234491 0.12977724
0.066899061 -0.092267215 0.12971355
0.067575604 -0.092111781 0.12958613
0.068202086 -0.092111781 0.12958613
0.068880014 -0.091956347 0.12945871
0.069532938 -0.091878608 0.12939501
0.070186317 -0.091800898 0.12933129
0.070813723 -0.091800898 0.12933129
0.071467817 -0.091723174 0.12926759
0.072095469 -0.091723174 0.12926759
0.072668836 -0.091878608 0.12939501
0.073323391 -0.091800898 0.12933129
0.073923208 -0.091878608 0.12939501
0.074550383 -0.091878608 0.12939501
0.075149491 -0.091956347 0.12945871
0.066248268 -0.0927874 0.12933475
0.066899061 -0.092709869 0.1292709
0.067575604 -0.092554763 0.12914315
0.068202086 -0.092554763 0.12914315
0.068880014 -0.092399657 0.1290154
0.069532938 -0.092322096 0.12895152
0.070186317 -0.092244551 0.12888765
0.070840165 -0.09216699 0.12882377
0.071467817 -0.09216699 0.12882377
0.072095469 -0.09216699 0.12882377
0.072723113 -0.09216699 0.12882377
0.073323391 -0.092244551 0.12888765
0.073923208 -0.092322096 0.12895152
0.074550383 -0.092322096 0.12895152
0.066248268 -0.09322989 0.12889226
0.066899061 -0.093152523 0.12882824
0.067575604 -0.09299776 0.12870017
0.068253078 -0.092842981 0.12857208
0.068880014 -0.092842981 0.12857208
0.069558896 -0.092688203 0.128444
0.070186317 -0.092688203 0.128444
0.070866592 -0.092533439 0.12831593
0.071494475 -0.092533439 0.12831593
0.072095469 -0.092610806 0.12837996
0.072723113 -0.092610806 0.12837996
0.073323391 -0.092688203 0.128444
0.073950805 -0.092688203 0.128444
0.074550383 -0.092765585 0.12850803
0.066899061 -0.093595177 0.12838559
0.067575604 -0.093440741 0.12825717
0.068227582 -0.093363509 0.12819296
0.068905748 -0.093209058 0.12806454
0.069558896 -0.093131855 0.12800035
0.070212521 -0.093054622 0.12793614
0.070866592 -0.092977419 0.12787196
0.071494475 -0.092977419 0.12787196
0.072122365 -0.092977419 0.12787196
0.072750241 -0.092977419 0.12787196
0.073350765 -0.093054622 0.12793614
0.073950805 -0.093131855 0.12800035
0.074550383 -0.093209058 0.12806454
0.067575604 -0.093883723 0.12781419
0.068253078 -0.093729615 0.12768544
0.068905748 -0.093652546 0.12762107
0.069558896 -0.093575507 0.1275567
0.070212521 -0.093498439 0.12749232
0.070919462 -0.093267292 0.12729923
0.071521141 -0.093344361 0.12736361
0.072176166 -0.093267292 0.12729923
0.072750241 -0.0934214 0.12742797
0.073350765 -0.093498439 0.12749232
0.073978417 -0.093498439 0.12749232
0.067727178 -0.093865395 0.126984
0.068406053 -0.093711615 0.12685493
0.069137327 -0.093404055 0.12659676
0.069818549 -0.093250275 0.12646769
0.070474498 -0.0931734 0.12640318
0.071078055 -0.093250275 0.12646769
0.071681149 -0.09332718 0.12653224
0.072256871 -0.093480945 0.12666132
0.072831646 -0.093634725 0.12679039
0.073405497 -0.093788505 0.12691946
0.069394626 -0.093081817 0.12550482
0.070104152 -0.092851654 0.12531072
0.070736483 -0.092851654 0.12531072
0.071342386 -0.09292838 0.1253754
0.071894489 -0.093158528 0.12556949
0.072498977 -0.093235269 0.12563421
0.072967328 -0.093695566 0.1260224
0.071129471 -0.092150435 0.12389061
0.070758335 -0.090837181 0.12025408
0.072637595 -0.090989307 0.12038481
0.069251671 -0.090002418 0.11868472
0.069748126 -0.090457782 0.11907789
0.070369251 -0.090533674 0.11914341
0.070938446 -0.090761334 0.11933997
0.071584128 -0.090761334 0.11933997
0.072203614 -0.09083724 0.11940552
0.072849058 -0.09083724 0.11940552
0.073494509 -0.09083724 0.11940552
0.074166864 -0.090761334 0.11933997
0.068037353 -0.088188812 0.1162557
0.068594173 -0.088491708 0.11651845
0.069099523 -0.088946074 0.11691262
0.069552004 -0.089551926 0.11743817
0.069950223 -0.090309188 0.1180951
0.07054773 -0.090460643 0.1182265
0.071118556 -0.090687811 0.11842357
0.071713954 -0.090839282 0.11855495
0.072360806 -0.090839282 0.11855495
0.072981216 -0.090915009 0.11862066
0.073627844 -0.090915009 0.11862066
0.074274465 -0.090915009 0.11862066
0.067478664 -0.088349745 0.11552906
0.06806168 -0.088576436 0.11572663
0.06861873 -0.088878676 0.11599007
0.069149107 -0.089256495 0.11631936
0.069702171 -0.089558735 0.11658281
0.070202842 -0.090012133 0.11697796
0.070675202 -0.090541065 0.11743897
0.071298666 -0.090616614 0.11750482
0.071921661 -0.090692177 0.1175707
0.072518006 -0.09084329 0.11770241
0.073166259 -0.09084329 0.11770241
0.073814519 -0.09084329 0.11770241
0.074435875 -0.090918869 0.11776827
0.067526847 -0.088662803 0.11493316
0.068134658 -0.088813588 0.11506522
0.068692401 -0.089115188 0.11532933
0.069173895 -0.089642972 0.11579148
0.069752224 -0.089869142 0.11598955
0.070329152 -0.090095326 0.11618762
0.07085368 -0.090472341 0.11651775
0.07145305 -0.090623111 0.11664979
0.072051495 -0.09077391 0.11678185
0.072648995 -0.090924695 0.11691388
0.073271982 -0.09100011 0.11697993
0.073947854 -0.090924695 0.11691388
0.074597284 -0.090924695 0.11691388
0.066918105 -0.088976532 0.11433659
0.067550935 -0.089051768 0.1144028
0.068134658 -0.089277446 0.11460136
0.068716966 -0.089503139 0.11479993
0.069273077 -0.089804068 0.11506468
0.069802284 -0.090180218 0.11539564
0.070379682 -0.090405911 0.11559419
0.070981167 -0.090556368 0.11572659
0.071555965 -0.090782076 0.11592516
0.072181314 -0.090857297 0.11599134
0.072779991 -0.091007754 0.11612374
0.073404156 -0.09108299 0.11618991
0.074054524 -0.09108299 0.11618991
0.074704893 -0.09108299 0.11618991
0.066941962 -0.089365974 0.11380574
0.06757503 -0.089441046 0.11387208
0.068183303 -0.089591175 0.11400479
0.068766087 -0.089816362 0.11420386
0.069322661 -0.090116635 0.11446927
0.069927417 -0.090266749 0.114602
0.070480719 -0.090567023 0.11486742
0.071108639 -0.090642095 0.11493376
0.071684629 -0.090867266 0.11513284
0.072311133 -0.090942353 0.11519919
0.072937183 -0.09101741 0.11526555
0.073536314 -0.091167539 0.11539826
0.074134521 -0.091317669 0.11553097
0.074812494 -0.091242626 0.11546463
0.06640292 -0.089456141 0.11300842
0.067013539 -0.089605942 0.11314148
0.067647301 -0.089680851 0.113208
0.068231955 -0.08990556 0.11340757
0.068839759 -0.090055361 0.1135406
0.069446631 -0.090205148 0.11367366
0.07002753 -0.090429857 0.11387321
0.070632294 -0.090579659 0.11400625
0.071236119 -0.090729445 0.1141393
0.071787544 -0.091029063 0.11440539
0.072414994 -0.091103956 0.1144719
0.073041968 -0.091178864 0.11453845
0.07366848 -0.091253743 0.11460495
0.07429453 -0.091328636 0.11467147
0.074947007 -0.091328636 0.11467147
0.06647379 -0.089697465 0.11234286
0.067108959 -0.08977221 0.11240956
0.067695484 -0.089996397 0.11260961
0.06832926 -0.090071127 0.11267629
0.068913437 -0.090295345 0.11287637
0.069545805 -0.090370074 0.11294305
0.07015267 -0.090519547 0.11307642
0.070758604 -0.090669006 0.1132098
0.071389101 -0.090743735 0.11327648
0.071941927 -0.091042683 0.11354323
0.072570786 -0.091117397 0.11360991
0.073172972 -0.09126687 0.11374329
0.07382708 -0.09126687 0.11374329
0.067743666 -0.090312615 0.11201057
0.068377912 -0.090387166 0.1120774
0.069011673 -0.090461731 0.11214426
0.069620185 -0.090610877 0.11227798
0.07027781 -0.090610877 0.11227798
0.070859656 -0.090834588 0.11247854
0.071465589 -0.090983734 0.11261223
0.072096311 -0.091058284 0.11267908
0.072700605 -0.09120743 0.11281279
0.07330396 -0.091356561 0.11294651
0.073932804 -0.091431141 0.11301337
0.067204386 -0.090406269 0.11120979
0.067791849 -0.090629473 0.11141086
0.068426557 -0.09070389 0.11147788
0.069060795 -0.090778291 0.11154489
0.069719359 -0.090778291 0.11154489
0.070352897 -0.090852663 0.1116119
0.070985958 -0.090927079 0.11167893
0.071618564 -0.091001481 0.11174594
0.072199225 -0.0912247 0.11194701
0.072830424 -0.091299102 0.11201403
0.073461153 -0.091373518 0.11208105
0.074091405 -0.09144792 0.11214805
0.074721202 -0.091522306 0.11221506
0.067888215 -0.090798512 0.11067611
0.068548188 -0.090798512 0.11067611
0.069183588 -0.090872765 0.1107433
0.069818534 -0.090947002 0.11081047
0.070427977 -0.091095477 0.11094485
0.07108701 -0.091095477 0.11094485
0.071720548 -0.09116973 0.11101204
0.072353609 -0.091243953 0.11107922
0.072960243 -0.091392428 0.11121358
0.073618345 -0.091392428 0.11121358
0.074276432 -0.091392428 0.11121358
0.068032756 -0.09082076 0.10980535
0.068669811 -0.090894833 0.1098727
0.069330946 -0.090894833 0.1098727
0.069942497 -0.091042981 0.11000741
0.07060317 -0.091042981 0.11000741
0.071238585 -0.091117054 0.11007473
0.071848027 -0.091265187 0.11020944
0.072482258 -0.091339275 0.11027679
0.073142 -0.091339275 0.11027679
0.073775537 -0.091413334 0.11034414
0.074435033 -0.091413334 0.11034414
0.068767115 -0.091066688 0.10913514
0.069453746 -0.090992808 0.10906763
0.070116051 -0.090992808 0.10906763
0.070753336 -0.091066688 0.10913514
0.071415417 -0.091066688 0.10913514
0.072051995 -0.091140628 0.10920265
0.072688103 -0.091214508 0.10927017
0.073323749 -0.091288432 0.10933769
0.073854133 -0.091657966 0.10967527
0.068394125 -0.090649977 0.10785481
0.069034688 -0.090723708 0.10792249
0.06969934 -0.090723708 0.10792249
0.070289604 -0.090944946 0.10812555
0.071003608 -0.090797469 0.10799018
0.071592249 -0.091018677 0.1081932
0.072255969 -0.091018677 0.1081932
0.072868221 -0.091166154 0.10832858
0.073531464 -0.091166154 0.10832858
0.074168511 -0.091239914 0.10839626
0.069277935 -0.090457946 0.10677405
0.069895811 -0.090605095 0.10690975
0.070512749 -0.090752259 0.10704544
0.071178801 -0.090752259 0.10704544
0.071819603 -0.090825826 0.10711327
0.072408937 -0.091046557 0.10731682
0.073048331 -0.091120124 0.10738467
0.073739178 -0.091046557 0.10731682
0.07437811 -0.091120124 0.10738467
0.068851843 -0.090195507 0.10562231
0.069496863 -0.09026891 0.1056903
0.070141405 -0.090342298 0.10575831
0.07076069 -0.090489119 0.10589434
0.071404055 -0.090562537 0.10596237
0.0720217 -0.090709358 0.1060984
0.072663903 -0.090782762 0.10616638
0.073279902 -0.090929583 0.10630241
0.073920935 -0.091002986 0.10637042
0.069116846 -0.089863107 0.10439906
0.069788761 -0.089863107 0.10439906
0.070362441 -0.090156063 0.10467175
0.070959032 -0.090375811 0.10487629
0.071579248 -0.090522304 0.10501266
0.072249055 -0.090522304 0.10501266
0.07286787 -0.090668797 0.10514902
0.073511474 -0.090742037 0.10521717
0.074180581 -0.090742037 0.10521717
0.068755075 -0.089388192 0.10303549
0.069309577 -0.089753583 0.10337719
0.069910392 -0.089972809 0.1035822
0.070583478 -0.089972809 0.1035822
0.071157381 -0.090265125 0.10385559
0.071804494 -0.090338215 0.10392395
0.07240063 -0.090557456 0.10412897
0.073046349 -0.090630502 0.10419729
0.073691584 -0.090703592 0.10426566
0.074336372 -0.090776667 0.104334
0.068245478 -0.089355081 0.10207866
0.068874359 -0.089500904 0.10221568
0.069502302 -0.089646727 0.10235269
0.07012932 -0.089792535 0.10248971
0.070755392 -0.089938357 0.10262671
0.071306139 -0.090302944 0.10296927
0.071979687 -0.090302944 0.10296927
0.072627984 -0.090375856 0.10303777
0.07322482 -0.090594575 0.10324329
0.073897429 -0.090594575 0.10324329
0.074570052 -0.090594575 0.10324329
0.06831634 -0.089615256 0.10139421
0.068922073 -0.089833498 0.10160024
0.06957458 -0.089906231 0.10166889
0.070226617 -0.089979008 0.10173757
0.070853621 -0.090124488 0.10187493
0.071479701 -0.090269968 0.10201228
0.072129861 -0.09034273 0.10208096
0.072804816 -0.09034273 0.10208096
0.073428787 -0.090488225 0.1022183
0.074103266 -0.090488225 0.1022183
0.074803732 -0.090415463 0.10214961
0.06777937 -0.089658692 0.10050225
0.068410829 -0.08980386 0.10063994
0.069041356 -0.089949012 0.10077761
0.069695033 -0.090021595 0.10084644
0.07034824 -0.090094179 0.1009153
0.071000978 -0.090166762 0.10098413
0.071603663 -0.090384498 0.10119063
0.072254993 -0.090457097 0.10125948
0.072905868 -0.090529665 0.10132831
0.073581763 -0.090529665 0.10132831
0.074231923 -0.090602249 0.10139717
0.074907579 -0.090602249 0.10139717
0.067872927 -0.089848936 0.099746302
0.068505324 -0.089993775 0.099884316
0.06916064 -0.09006618 0.099953324
0.069815487 -0.090138614 0.10002233
0.070445538 -0.090283453 0.10016035
0.071123779 -0.090283453 0.10016035
0.071727633 -0.090500683 0.10036735
0.072380133 -0.090573102 0.10043637
0.073057435 -0.090573102 0.10043637
0.073709242 -0.090645522 0.10050537
0.074334845 -0.090790361 0.10064338
0.07506337 -0.090645522 0.10050537
0.067262746 -0.090112776 0.099058226
0.067919701 -0.090185016 0.099127382
0.068599813 -0.090185016 0.099127382
0.069232211 -0.090329513 0.099265724
0.06986367 -0.090474024 0.099404067
0.070542842 -0.090474024 0.099404067
0.071197458 -0.090546265 0.099473238
0.071826808 -0.090690777 0.099611565
0.07250528 -0.090690777 0.099611565
0.073158488 -0.090763032 0.099680766
0.073836721 -0.090763032 0.099680766
0.074463494 -0.090907529 0.099819094
0.075193189 -0.090763032 0.099680766
0.067309052 -0.090449676 0.098438472
0.067989863 -0.090449676 0.098438472
0.068623438 -0.09059386 0.098577142
0.069303781 -0.09059386 0.098577142
0.069960035 -0.090665936 0.098646462
0.070640147 -0.090665936 0.098646462
0.071295694 -0.090738028 0.098715812
0.071950771 -0.09081009 0.098785147
0.07258036 -0.090954274 0.098923817
0.073259532 -0.090954274 0.098923817
0.073913217 -0.091026351 0.098993152
0.074592151 -0.091026351 0.098993152
0.067355365 -0.090787247 0.097818047
0.068036646 -0.090787247 0.097818047
0.068717927 -0.090787247 0.097818047
0.069399208 -0.090787247 0.097818047
0.070080489 -0.090787247 0.097818047
0.070737444 -0.09085916 0.097887546
0.071418494 -0.09085916 0.097887546
0.072074741 -0.090931088 0.09795706
0.072705492 -0.091074929 0.098096073
0.073385842 -0.091074929 0.098096073
0.074015193 -0.09121877 0.098235071
0.0747208 -0.091146842 0.098165557
0.066788681 -0.090910226 0.096987978
0.067471132 -0.090910226 0.096987978
0.068153583 -0.090910226 0.096987978
0.068836041 -0.090910226 0.096987978
0.069494635 -0.090981975 0.097057641
0.070200935 -0.090910226 0.096987978
0.070859075 -0.090981975 0.097057641
0.071541287 -0.090981975 0.097057641
0.072198704 -0.091053739 0.097127318
0.072830632 -0.091197252 0.097266644
0.073512152 -0.091197252 0.097266644
0.074168175 -0.091268986 0.097336307
0.068977773 -0.090963259 0.096086398
0.069637768 -0.091034859 0.096156254
0.070321389 -0.091034859 0.096156254
0.070980698 -0.09110643 0.096226066
0.071639523 -0.091178015 0.096295893
0.072322682 -0.091178015 0.096295893
0.072955772 -0.091321185 0.096435577
0.073638462 -0.091321185 0.096435577
0.074295655 -0.091392785 0.096505418
0.069095887 -0.091089696 0.095252857
0.069780916 -0.091089696 0.095252857
0.070490032 -0.091018274 0.095182836
0.071126647 -0.091161117 0.095322847
0.07178688 -0.091232553 0.095392853
0.072421849 -0.091375396 0.095532864
0.073105939 -0.091375396 0.095532864
0.073790029 -0.091375396 0.095532864
0.07444863 -0.091446817 0.09560284
0.067911066 -0.091004029 0.094207138
0.068621352 -0.090932786 0.094136983
0.069284871 -0.091004029 0.094207138
0.069947906 -0.091075301 0.094277307
0.070634574 -0.091075301 0.094277307
0.071272597 -0.091217816 0.094417647
0.071909674 -0.091360331 0.094557986
0.072595403 -0.091360331 0.094557986
0.073281132 -0.091360331 0.094557986
0.073966861 -0.091360331 0.094557986
0.067384608 -0.090992108 0.093229115
0.068073146 -0.090992108 0.093229115
0.068761684 -0.090992108 0.093229115
0.069426604 -0.091063201 0.093299463
0.070114903 -0.091063201 0.093299463
0.07080321 -0.091063201 0.093299463
0.071467198 -0.091134295 0.093369782
0.07213071 -0.091205388 0.09344013
0.07281854 -0.091205388 0.09344013
0.073456332 -0.091347545 0.093580768
0.0741437 -0.091347545 0.093580768
0.067567959 -0.090911582 0.092178285
0.068281531 -0.090840638 0.092107788
0.068972178 -0.090840638 0.092107788
0.069662832 -0.090840638 0.092107788
0.070353478 -0.090840638 0.092107788
0.071020029 -0.090911582 0.092178285
0.071637474 -0.091124356 0.092389777
0.072327182 -0.091124356 0.092389777
0.073016897 -0.091124356 0.092389777
0.073681578 -0.091195285 0.092460245
0.067705482 -0.09097521 0.091266125
0.068397298 -0.09097521 0.091266125
0.069089122 -0.09097521 0.091266125
0.06982819 -0.090833694 0.091124788
0.070520476 -0.090833694 0.091124788
0.071212761 -0.090833694 0.091124788
0.071856402 -0.09097521 0.091266125
0.072523661 -0.091045976 0.091336772
0.073215246 -0.091045976 0.091336772
0.073906831 -0.091045976 0.091336772
0.068513073 -0.091111436 0.090422809
0.069252834 -0.090970248 0.090281144
0.069969922 -0.090899646 0.090210304
0.070687473 -0.090829059 0.090139478
0.071381398 -0.090829059 0.090139478
0.07207533 -0.090829059 0.090139478
0.072744697 -0.090899646 0.090210304
0.073463179 -0.090829059 0.090139478
0.074132077 -0.090899646 0.090210304
0.068651997 -0.091178879 0.089506805
0.069369778 -0.091108456 0.089435846
0.070088036 -0.091038018 0.089364842
0.070806749 -0.090967596 0.089293852
0.071550034 -0.090826735 0.089151859
0.072196953 -0.090967596 0.089293852
0.072941169 -0.090826735 0.089151859
0.073636733 -0.090826735 0.089151859
0.074282244 -0.090967596 0.089293852
0.06879092 -0.091248333 0.088588864
0.06951011 -0.091178045 0.088517696
0.070324257 -0.090826735 0.088161916
0.071069174 -0.090686202 0.088019595
0.071766853 -0.090686202 0.088019595
0.072464526 -0.090686202 0.088019595
0.073162198 -0.090686202 0.088019595
0.07385987 -0.090686202 0.088019595
0.06981416 -0.09075895 0.087098315
0.070631355 -0.090408474 0.086741701
0.071331598 -0.090408474 0.086741701
0.071983665 -0.090548664 0.08688435
0.072683454 -0.090548664 0.08688435
0.073358677 -0.090618744 0.086955667
0.074058227 -0.090618744 0.086955667
0.070211753 -0.090064436 0.085388675
0.07091482 -0.090064436 0.085388675
0.071570165 -0.090204298 0.085531667
0.072200485 -0.090414107 0.085746124
0.072902381 -0.090414107 0.085746124
0.073530592 -0.090623885 0.085960582
0.070445642 -0.089863911 0.084174976
0.071151048 -0.089863911 0.084174976
0.07176102 -0.09014298 0.0844616
0.072369121 -0.090422049 0.084748223
0.073024005 -0.090561569 0.084891543
0.073677942 -0.090701118 0.085034847
0.06951616 -0.088901088 0.082167953
0.070133857 -0.089179501 0.082455248
0.070819855 -0.089249104 0.082527041
0.071458139 -0.089457914 0.082742527
0.07197573 -0.090014696 0.083317086
0.07258594 -0.090293109 0.08360438
0.073413208 -0.089945123 0.083245263
0 0 0 1 0 0 0 1 0 0 0 1 0 0 0 0 0 560 1 0 0
