ply
format ascii 1.0
comment PCL generated
element vertex 522
property float x
property float y
property float z
element camera 1
property float view_px
property float view_py
property float view_pz
property float x_axisx
property float x_axisy
property float x_axisz
property float y_axisx
property float y_axisy
property float y_axisz
property float z_axisx
property float z_axisy
property float z_axisz
property float focal
property float scalex
property float scaley
property float centerx
property float centery
property int viewportx
property int viewporty
property float k1
property float k2
end_header
0.069137327 -0.088509321 0.13149148
0.069792576 -0.088430643 0.13142878
0.070395909 -0.088509321 0.13149148
0.071025193 -0.088509321 0.13149148
0.071627811 -0.088588044 0.13155422
0.067828223 -0.089111388 0.13117227
0.068457045 -0.089111388 0.13117227
0.069111593 -0.089032859 0.1311094
0.069740646 -0.089032859 0.1311094
0.070343509 -0.089111388 0.13117227
0.070972323 -0.089111388 0.13117227
0.071574479 -0.089189947 0.13123517
0.072176166 -0.089268491 0.13129804
0.067149349 -0.089712799 0.13085373
0.067777701 -0.089712799 0.13085373
0.068406053 -0.089712799 0.13085373
0.069085866 -0.089556038 0.13072763
0.069714688 -0.089556038 0.13072763
0.070343509 -0.089556038 0.13072763
0.070945889 -0.089634418 0.13079068
0.071547814 -0.089712799 0.13085373
0.072149262 -0.089791179 0.13091677
0.072723113 -0.089947909 0.13104284
0.066471405 -0.090313539 0.13053584
0.067124315 -0.090235338 0.13047263
0.067752436 -0.090235338 0.13047263
0.068406053 -0.090157107 0.13040942
0.069034405 -0.090157107 0.13040942
0.069662757 -0.090157107 0.13040942
0.070291109 -0.090157107 0.13040942
0.070919462 -0.090157107 0.13040942
0.071521141 -0.090235338 0.13047263
0.072122365 -0.090313539 0.13053584
0.072695971 -0.090469956 0.13066225
0.073296025 -0.090548158 0.13072546
0.066421822 -0.090913609 0.1302186
0.067074262 -0.090835541 0.13015521
0.067727178 -0.090757519 0.13009186
0.068380557 -0.090679482 0.13002849
0.069008671 -0.090679482 0.13002849
0.069610827 -0.090757519 0.13009186
0.070264906 -0.090679482 0.13002849
0.070866592 -0.090757519 0.13009186
0.071441144 -0.090913609 0.1302186
0.072068557 -0.090913609 0.1302186
0.072641701 -0.091069698 0.13034534
0.073268652 -0.091069698 0.13034534
0.073867999 -0.091147751 0.13040872
0.065769851 -0.091435134 0.12983848
0.066397026 -0.091435134 0.12983848
0.067049235 -0.091357261 0.12977494
0.067676648 -0.091357261 0.12977494
0.068329573 -0.091279358 0.12971139
0.068957217 -0.091279358 0.12971139
0.069584869 -0.091279358 0.12971139
0.070212521 -0.091279358 0.12971139
0.070813723 -0.091357261 0.12977494
0.071441144 -0.091357261 0.12977494
0.072041661 -0.091435134 0.12983848
0.072614565 -0.091590896 0.12996557
0.073241286 -0.091590896 0.12996557
0.07381279 -0.091746658 0.13009265
0.074439026 -0.091746658 0.13009265
0.065745287 -0.091956347 0.12945871
0.066372231 -0.091956347 0.12945871
0.067024209 -0.091878608 0.12939501
0.067651391 -0.091878608 0.12939501
0.068278573 -0.091878608 0.12939501
0.068931475 -0.091800898 0.12933129
0.069558896 -0.091800898 0.12933129
0.070186317 -0.091800898 0.12933129
0.070787296 -0.091878608 0.12939501
0.071414478 -0.091878608 0.12939501
0.072014757 -0.091956347 0.12945871
0.072614565 -0.092034042 0.12952241
0.073213905 -0.092111781 0.12958613
0.073840387 -0.092111781 0.12958613
0.074439026 -0.092189491 0.12964983
0.066347443 -0.092477202 0.12907927
0.067024209 -0.092322096 0.12895152
0.067626126 -0.092399657 0.1290154
0.068253078 -0.092399657 0.1290154
0.068880014 -0.092399657 0.1290154
0.069532938 -0.092322096 0.12895152
0.070186317 -0.092244551 0.12888765
0.070787296 -0.092322096 0.12895152
0.071414478 -0.092322096 0.12895152
0.072014757 -0.092399657 0.1290154
0.07258743 -0.092554763 0.12914315
0.073213905 -0.092554763 0.12914315
0.073840387 -0.092554763 0.12914315
0.074439026 -0.092632309 0.12920702
0.066372231 -0.092842981 0.12857208
0.066999175 -0.092842981 0.12857208
0.067626126 -0.092842981 0.12857208
0.068278573 -0.092765585 0.12850803
0.068905748 -0.092765585 0.12850803
0.069532938 -0.092765585 0.12850803
0.070186317 -0.092688203 0.128444
0.070813723 -0.092688203 0.128444
0.071441144 -0.092688203 0.128444
0.072041661 -0.092765585 0.12850803
0.072641701 -0.092842981 0.12857208
0.073241286 -0.092920363 0.12863611
0.073867999 -0.092920363 0.12863611
0.074466862 -0.09299776 0.12870017
0.066974156 -0.093363509 0.12819296
0.067600869 -0.093363509 0.12819296
0.068278573 -0.093209058 0.12806454
0.068931475 -0.093131855 0.12800035
0.069558896 -0.093131855 0.12800035
0.070186317 -0.093131855 0.12800035
0.070840165 -0.093054622 0.12793614
0.071467817 -0.093054622 0.12793614
0.072041661 -0.093209058 0.12806454
0.072641701 -0.093286291 0.12812877
0.073268652 -0.093286291 0.12812877
0.073867999 -0.093363509 0.12819296
0.067651391 -0.093652546 0.12762107
0.068304069 -0.093575507 0.1275567
0.068957217 -0.093498439 0.12749232
0.069558896 -0.093575507 0.1275567
0.070160121 -0.093652546 0.12762107
0.070840165 -0.093498439 0.12749232
0.071494475 -0.0934214 0.12742797
0.072068557 -0.093575507 0.1275567
0.072668836 -0.093652546 0.12762107
0.073268652 -0.093729615 0.12768544
0.073895596 -0.093729615 0.12768544
0.067752436 -0.093788505 0.12691946
0.068380557 -0.093788505 0.12691946
0.069060132 -0.093634725 0.12679039
0.069714688 -0.093557835 0.12672584
0.070369706 -0.093480945 0.12666132
0.07105162 -0.09332718 0.12653224
0.071654484 -0.093404055 0.12659676
0.072203062 -0.093634725 0.12679039
0.072804518 -0.093711615 0.12685493
0.073378131 -0.093865395 0.126984
0.068712004 -0.093235269 0.12563421
0.06942036 -0.093005091 0.12544011
0.070052229 -0.093005091 0.12544011
0.070631698 -0.093158528 0.12556949
0.071368814 -0.092851654 0.12531072
0.071921147 -0.093081817 0.12550482
0.072445177 -0.093388706 0.12576361
0.072940193 -0.093772322 0.1260871
0.073542349 -0.093849018 0.1261518
0.070545547 -0.091997325 0.12376086
0.07120806 -0.091920793 0.12369601
0.071712442 -0.092303559 0.12402034
0.072161153 -0.09283945 0.12447439
0.0700633 -0.090989307 0.12038481
0.070732601 -0.090913266 0.12031946
0.071298517 -0.091141433 0.12051554
0.071994029 -0.090989307 0.12038481
0.072637595 -0.090989307 0.12038481
0.073254503 -0.091065377 0.12045018
0.069571294 -0.090989038 0.11953658
0.070216276 -0.090989038 0.11953658
0.07086125 -0.090989038 0.11953658
0.071506232 -0.090989038 0.11953658
0.072098814 -0.091140836 0.11966763
0.072769761 -0.09106493 0.1196021
0.073387839 -0.091140836 0.11966763
0.074032351 -0.091140836 0.11966763
0.069151558 -0.090763554 0.11848927
0.069773391 -0.090839282 0.11855495
0.07042025 -0.090839282 0.11855495
0.071067095 -0.090839282 0.11855495
0.071662024 -0.090990737 0.11868635
0.072282217 -0.091066465 0.11875202
0.072901927 -0.091142192 0.11881775
0.07354784 -0.091142192 0.11881775
0.074220672 -0.091066465 0.11875202
0.069950223 -0.090767741 0.11763655
0.070598722 -0.090767741 0.11763655
0.071221478 -0.09084329 0.11770241
0.071843773 -0.090918869 0.11776827
0.072491802 -0.090918869 0.11776827
0.073113389 -0.090994418 0.11783411
0.07376118 -0.090994418 0.11783411
0.069577031 -0.090396911 0.11645171
0.070127055 -0.09069851 0.11671583
0.070751697 -0.09077391 0.11678185
0.071350127 -0.090924695 0.11691388
0.072051495 -0.09077391 0.11678185
0.072596595 -0.091075495 0.11704594
0.073245555 -0.091075495 0.11704594
0.073921181 -0.09100011 0.11697993
0.069173895 -0.090104997 0.11532946
0.069727205 -0.090405911 0.11559419
0.07027863 -0.09070684 0.11585897
0.070879176 -0.090857297 0.11599134
0.071504503 -0.090932548 0.11605754
0.072129384 -0.091007754 0.11612374
0.072753794 -0.09108299 0.11618991
0.073377714 -0.091158226 0.11625612
0.074027851 -0.091158226 0.11625612
0.069347449 -0.090041578 0.11440293
0.069927417 -0.090266749 0.114602
0.070480719 -0.090567023 0.11486742
0.071083143 -0.090717167 0.11500014
0.071684629 -0.090867266 0.11513284
0.072311133 -0.090942353 0.11519919
0.072884783 -0.091167539 0.11539826
0.073509879 -0.091242626 0.11546463
0.074161187 -0.091242626 0.11546463
0.074812494 -0.091242626 0.11546463
0.069496214 -0.090055361 0.1135406
0.070077591 -0.090280041 0.11374018
0.070632294 -0.090579659 0.11400625
0.071236119 -0.090729445 0.1141393
0.071839005 -0.090879261 0.11427234
0.072414994 -0.091103956 0.1144719
0.073041968 -0.091178864 0.11453845
0.07366848 -0.091253743 0.11460495
0.07429453 -0.091328636 0.11467147
0.068548188 -0.089398518 0.1120761
0.06964498 -0.090071127 0.11267629
0.07022775 -0.090295345 0.11287637
0.070809126 -0.090519547 0.11307642
0.071389101 -0.090743735 0.11327648
0.071967654 -0.090967953 0.11347656
0.072570786 -0.091117397 0.11360991
0.073172972 -0.09126687 0.11374329
0.073800638 -0.091341615 0.11380999
0.074454524 -0.091341615 0.11380999
0.068621159 -0.089641482 0.11140889
0.069208153 -0.089865178 0.11160944
0.069768943 -0.090163469 0.11187686
0.070352897 -0.090387166 0.1120774
0.070960701 -0.090536296 0.11221112
0.071516581 -0.090834588 0.11247854
0.072122037 -0.090983734 0.11261223
0.072700605 -0.09120743 0.11281279
0.07330396 -0.091356561 0.11294651
0.073932804 -0.091431141 0.11301337
0.068129122 -0.089587837 0.1104726
0.06869413 -0.089885443 0.11074068
0.069281831 -0.090108648 0.11094174
0.069868118 -0.090331852 0.11114277
0.070503056 -0.090406269 0.11120979
0.07108701 -0.090629473 0.11141086
0.071695052 -0.090778291 0.11154489
0.072276421 -0.091001481 0.11174594
0.072830424 -0.091299102 0.11201403
0.073461153 -0.091373518 0.11208105
0.074091405 -0.09144792 0.11214805
0.068791434 -0.090056151 0.11000428
0.069404624 -0.090204641 0.11013864
0.070016876 -0.090353101 0.11027302
0.070653223 -0.090427339 0.11034019
0.07121332 -0.090724304 0.11060894
0.071822532 -0.090872765 0.1107433
0.07240507 -0.091095477 0.11094485
0.072986215 -0.091318175 0.11114639
0.073618345 -0.091392428 0.11121358
0.068345942 -0.089857832 0.10892981
0.068937384 -0.090080038 0.10913184
0.069551982 -0.090228185 0.10926655
0.070165642 -0.090376332 0.10940126
0.070778362 -0.09052448 0.10953596
0.071364895 -0.090746686 0.10973799
0.071975507 -0.090894833 0.1098727
0.072559454 -0.091117054 0.11007473
0.073167965 -0.091265187 0.11020944
0.073827937 -0.091265187 0.11020944
0.068490483 -0.089884207 0.10805489
0.069059014 -0.090179831 0.10832496
0.06969934 -0.090253726 0.10839248
0.070339195 -0.09032765 0.10845999
0.070903495 -0.090623289 0.10873005
0.071541727 -0.090697169 0.10879757
0.072153986 -0.090844989 0.1089326
0.072765291 -0.090992808 0.10906763
0.073401645 -0.091066688 0.10913514
0.068586849 -0.09006004 0.10731336
0.069229282 -0.090133786 0.10738105
0.069871254 -0.090207532 0.10744873
0.070487961 -0.090355009 0.10758407
0.071078695 -0.090576246 0.10778713
0.071693301 -0.090723708 0.10792249
0.072357953 -0.090723708 0.10792249
0.07299687 -0.090797469 0.10799018
0.07366129 -0.090797469 0.10799018
0.06820637 -0.089648619 0.10602775
0.068827756 -0.089795783 0.10616343
0.069423892 -0.090016484 0.10636698
0.070043169 -0.090163648 0.10650267
0.070686303 -0.09023723 0.10657053
0.071278915 -0.090457946 0.10677405
0.071895391 -0.090605095 0.10690975
0.07256192 -0.090605095 0.10690975
0.073202714 -0.090678662 0.10697758
0.067702159 -0.089608222 0.10507821
0.068301797 -0.089828432 0.10528223
0.068948209 -0.08990185 0.10535026
0.069569834 -0.090048671 0.10548629
0.070190519 -0.090195507 0.10562231
0.070835069 -0.09026891 0.1056903
0.071429089 -0.090489119 0.10589434
0.072072223 -0.090562537 0.10596237
0.072714895 -0.09063594 0.10603037
0.073382825 -0.09063594 0.10603037
0.074050762 -0.09063594 0.10603037
0.067820273 -0.089716613 0.10426269
0.068421081 -0.089936346 0.10446723
0.069092758 -0.089936346 0.10446723
0.06971579 -0.090082839 0.10460359
0.070362441 -0.090156063 0.10467175
0.070983827 -0.090302557 0.10480811
0.071629301 -0.090375811 0.10487629
0.072249055 -0.090522304 0.10501266
0.072893374 -0.090595543 0.10508083
0.073562935 -0.090595543 0.10508083
0.074232511 -0.090595543 0.10508083
0.067891143 -0.089972809 0.1035822
0.068516508 -0.09011896 0.10371891
0.069189124 -0.09011896 0.10371891
0.069837414 -0.09019205 0.10378726
0.070485234 -0.090265125 0.10385559
0.071157381 -0.090265125 0.10385559
0.071804494 -0.090338215 0.10392395
0.072476409 -0.090338215 0.10392395
0.073122837 -0.090411291 0.10399228
0.073794506 -0.090411291 0.10399228
0.074466191 -0.090411291 0.10399228
0.068032876 -0.090011299 0.10269523
0.068635792 -0.090230018 0.10290076
0.069309577 -0.090230018 0.10290076
0.069959037 -0.090302944 0.10296927
0.070657149 -0.090230018 0.10290076
0.071330935 -0.090230018 0.10290076
0.071979687 -0.090302944 0.10296927
0.072653241 -0.090302944 0.10296927
0.073326796 -0.090302944 0.10296927
0.074000344 -0.090302944 0.10296927
0.068103746 -0.090269968 0.10201228
0.068755075 -0.09034273 0.10208096
0.069454126 -0.090269968 0.10201228
0.070104994 -0.09034273 0.10208096
0.070804507 -0.090269968 0.10201228
0.071479701 -0.090269968 0.10201228
0.072154887 -0.090269968 0.10201228
0.072804816 -0.09034273 0.10208096
0.073479779 -0.09034273 0.10208096
0.074154727 -0.09034273 0.10208096
0.06822186 -0.090384498 0.10119063
0.068898216 -0.090384498 0.10119063
0.069550484 -0.090457097 0.10125948
0.070250943 -0.090384498 0.10119063
0.070902742 -0.090457097 0.10125948
0.071578868 -0.090457097 0.10125948
0.072254993 -0.090457097 0.10125948
0.072931126 -0.090457097 0.10125948
0.073607258 -0.090457097 0.10125948
0.074283384 -0.090457097 0.10125948
0.067639038 -0.090573102 0.10043637
0.06831634 -0.090573102 0.10043637
0.068993635 -0.090573102 0.10043637
0.069695033 -0.090500683 0.10036735
0.070372567 -0.090500683 0.10036735
0.071025535 -0.090573102 0.10043637
0.071702838 -0.090573102 0.10043637
0.072380133 -0.090573102 0.10043637
0.073057435 -0.090573102 0.10043637
0.073734738 -0.090573102 0.10043637
0.074412033 -0.090573102 0.10043637
0.068410829 -0.090763032 0.099680766
0.069112927 -0.090690777 0.099611565
0.069767304 -0.090763032 0.099680766
0.070469871 -0.090690777 0.099611565
0.071148336 -0.090690777 0.099611565
0.071802013 -0.090763032 0.099680766
0.072480246 -0.090763032 0.099680766
0.073183753 -0.090690777 0.099611565
0.073836721 -0.090763032 0.099680766
0.07454069 -0.090690777 0.099611565
0.067826152 -0.090954274 0.098923817
0.068481706 -0.091026351 0.098993152
0.069184497 -0.090954274 0.098923817
0.06986367 -0.090954274 0.098923817
0.070542842 -0.090954274 0.098923817
0.071222015 -0.090954274 0.098923817
0.071876399 -0.091026351 0.098993152
0.07258036 -0.090954274 0.098923817
0.073259532 -0.090954274 0.098923817
0.073938712 -0.090954274 0.098923817
0.074617878 -0.090954274 0.098923817
0.067216434 -0.09121877 0.098235071
0.067896314 -0.09121877 0.098235071
0.068576187 -0.09121877 0.098235071
0.06925606 -0.09121877 0.098235071
0.069960035 -0.091146842 0.098165557
0.070640147 -0.091146842 0.098165557
0.071320251 -0.091146842 0.098165557
0.072000362 -0.091146842 0.098165557
0.072680473 -0.091146842 0.098165557
0.073360585 -0.091146842 0.098165557
0.074040696 -0.091146842 0.098165557
0.0747208 -0.091146842 0.098165557
0.067989863 -0.0914125 0.097475648
0.068694308 -0.091340736 0.09740597
0.069375351 -0.091340736 0.09740597
0.070080489 -0.091268986 0.097336307
0.07076177 -0.091268986 0.097336307
0.071443051 -0.091268986 0.097336307
0.07214912 -0.091197252 0.097266644
0.072805606 -0.091268986 0.097336307
0.073486887 -0.091268986 0.097336307
0.074168175 -0.091268986 0.097336307
0.067447983 -0.09146437 0.096575245
0.068130195 -0.09146437 0.096575245
0.068836041 -0.091392785 0.096505418
0.069518492 -0.091392785 0.096505418
0.07022503 -0.091321185 0.096435577
0.070907719 -0.091321185 0.096435577
0.071590409 -0.091321185 0.096435577
0.07227309 -0.091321185 0.096435577
0.072955772 -0.091321185 0.096435577
0.073613197 -0.091392785 0.096505418
0.074321151 -0.091321185 0.096435577
0.068270527 -0.091518253 0.095672861
0.068977773 -0.091446817 0.09560284
0.069637768 -0.091518253 0.095672861
0.070345484 -0.091446817 0.09560284
0.071029343 -0.091446817 0.09560284
0.071713202 -0.091446817 0.09560284
0.072397061 -0.091446817 0.09560284
0.073105939 -0.091375396 0.095532864
0.073764771 -0.091446817 0.09560284
0.074474126 -0.091375396 0.095532864
0.068387471 -0.091645345 0.094838619
0.069095887 -0.091574088 0.094768465
0.069780916 -0.091574088 0.094768465
0.070490032 -0.091502815 0.094698295
0.071223944 -0.091360331 0.094557986
0.071860559 -0.091502815 0.094698295
0.072545819 -0.091502815 0.094698295
0.073281132 -0.091360331 0.094557986
0.073916346 -0.091502815 0.094698295
0.074652597 -0.091360331 0.094557986
0.06857457 -0.091560841 0.093791768
0.06930849 -0.091418669 0.093651101
0.070019484 -0.091347545 0.093580768
0.070706852 -0.091347545 0.093580768
0.071394227 -0.091347545 0.093580768
0.072032474 -0.091489732 0.093721434
0.072744168 -0.091418669 0.093651101
0.073431298 -0.091418669 0.093651101
0.074118435 -0.091418669 0.093651101
0.068003677 -0.091691762 0.092953756
0.068738289 -0.091549918 0.092812747
0.069497474 -0.091337115 0.092601255
0.070186481 -0.091337115 0.092601255
0.070923671 -0.091195285 0.092460245
0.071588822 -0.091266215 0.092530772
0.072278067 -0.091266215 0.092530772
0.072967306 -0.091266215 0.092530772
0.073631525 -0.091337115 0.092601255
0.07432054 -0.091337115 0.092601255
0.068281531 -0.091329008 0.091619417
0.068995565 -0.091258273 0.091548771
0.06975732 -0.091045976 0.091336772
0.070448905 -0.091045976 0.091336772
0.07114049 -0.091045976 0.091336772
0.071832076 -0.091045976 0.091336772
0.072449982 -0.091258273 0.091548771
0.073190451 -0.091116741 0.091407448
0.073831744 -0.091258273 0.091548771
0.069252834 -0.090970248 0.090281144
0.069969922 -0.090899646 0.090210304
0.070663616 -0.090899646 0.090210304
0.071333215 -0.090970248 0.090281144
0.072026677 -0.090970248 0.090281144
0.072671011 -0.091111436 0.090422809
0.073339209 -0.091182038 0.090493605
0.074031964 -0.091182038 0.090493605
0.069416553 -0.090967596 0.089293852
0.070158899 -0.090826735 0.089151859
0.070806749 -0.090967596 0.089293852
0.071477763 -0.091038018 0.089364842
0.072148301 -0.091108456 0.089435846
0.07286749 -0.091038018 0.089364842
0.073512763 -0.091178879 0.089506805
0.074207157 -0.091178879 0.089506805
0.070371501 -0.090686202 0.088019595
0.07102146 -0.090826735 0.088161916
0.071694583 -0.090896994 0.088233069
0.072367229 -0.090967268 0.088304237
0.073088527 -0.090896994 0.088233069
0.070678599 -0.090268269 0.086599052
0.071331598 -0.090408474 0.086741701
0.071983665 -0.090548664 0.08688435
0.072610483 -0.09075895 0.087098315
0.073358677 -0.090618744 0.086955667
0.073983841 -0.090829059 0.087169647
0.070891201 -0.090134367 0.085460156
0.07159403 -0.090134367 0.085460156
0.072200485 -0.090414107 0.085746124
0.072829403 -0.090623885 0.085960582
0.073530592 -0.090623885 0.085960582
0.074206978 -0.090693831 0.086032078
0.071174666 -0.089794159 0.084103331
0.07176102 -0.09014298 0.0844616
0.072393216 -0.090352282 0.084676549
0.073096983 -0.090352282 0.084676549
0.073776186 -0.090422049 0.084748223
0.070064396 -0.089388296 0.082670689
0.07077308 -0.089388296 0.082670689
0.07143452 -0.089527503 0.082814336
0.072071165 -0.089736298 0.083029792
0.072754577 -0.089805916 0.08310163
0.073388882 -0.090014696 0.083317086
0.069722436 -0.088778466 0.081017792
0.070342243 -0.089056194 0.081305757
0.071030349 -0.089125633 0.081377745
0.071670741 -0.089333951 0.081593692
0.072357439 -0.089403361 0.08166568
0.073067762 -0.089403361 0.08166568
0.073705114 -0.089611664 0.081881642
0 0 0 1 0 0 0 1 0 0 0 1 0 0 0 0 0 522 1 0 0
