ply
format ascii 1.0
comment PCL generated
element vertex 570
property float x
property float y
property float z
element camera 1
property float view_px
property float view_py
property float view_pz
property float x_axisx
property float x_axisy
property float x_axisz
property float y_axisx
property float y_axisy
property float y_axisz
property float z_axisx
property float z_axisy
property float z_axisz
property float focal
property float scalex
property float scaley
property float centerx
property float centery
property int viewportx
property int viewporty
property float k1
property float k2
end_header
0.069111593 -0.088588044 0.13155422
0.069740646 -0.088588044 0.13155422
0.070395909 -0.088509321 0.13149148
0.070998751 -0.088588044 0.13155422
0.067802958 -0.089189947 0.13123517
0.068431549 -0.089189947 0.13123517
0.069085866 -0.089111388 0.13117227
0.069714688 -0.089111388 0.13117227
0.070343509 -0.089111388 0.13117227
0.070972323 -0.089111388 0.13117227
0.071574479 -0.089189947 0.13123517
0.072176166 -0.089268491 0.13129804
0.067124315 -0.089791179 0.13091677
0.067752436 -0.089791179 0.13091677
0.068406053 -0.089712799 0.13085373
0.069060132 -0.089634418 0.13079068
0.069714688 -0.089556038 0.13072763
0.070343509 -0.089556038 0.13072763
0.070972323 -0.089556038 0.13072763
0.071547814 -0.089712799 0.13085373
0.072149262 -0.089791179 0.13091677
0.072750241 -0.089869559 0.13097982
0.066471405 -0.090313539 0.13053584
0.067124315 -0.090235338 0.13047263
0.067727178 -0.090313539 0.13053584
0.068406053 -0.090157107 0.13040942
0.069008671 -0.090235338 0.13047263
0.069662757 -0.090157107 0.13040942
0.070317306 -0.090078905 0.13034621
0.070945889 -0.090078905 0.13034621
0.071547814 -0.090157107 0.13040942
0.072149262 -0.090235338 0.13047263
0.072723113 -0.090391725 0.13059902
0.073378131 -0.090313539 0.13053584
0.066446617 -0.090835541 0.13015521
0.067074262 -0.090835541 0.13015521
0.067701921 -0.090835541 0.13015521
0.068355061 -0.090757519 0.13009186
0.069008671 -0.090679482 0.13002849
0.069610827 -0.090757519 0.13009186
0.070291109 -0.090601414 0.1299651
0.070919462 -0.090601414 0.1299651
0.071494475 -0.090757519 0.13009186
0.072122365 -0.090757519 0.13009186
0.072723113 -0.090835541 0.13015521
0.073350765 -0.090835541 0.13015521
0.073950805 -0.090913609 0.1302186
0.065745287 -0.091513023 0.12990203
0.066397026 -0.091435134 0.12983848
0.067049235 -0.091357261 0.12977494
0.067676648 -0.091357261 0.12977494
0.068329573 -0.091279358 0.12971139
0.068982944 -0.091201499 0.12964788
0.069610827 -0.091201499 0.12964788
0.070264906 -0.091123626 0.12958434
0.070893019 -0.091123626 0.12958434
0.071494475 -0.091201499 0.12964788
0.072122365 -0.091201499 0.12964788
0.072723113 -0.091279358 0.12971139
0.073323391 -0.091357261 0.12977494
0.073950805 -0.091357261 0.12977494
0.074550383 -0.091435134 0.12983848
0.06572073 -0.092034042 0.12952241
0.066372231 -0.091956347 0.12945871
0.067024209 -0.091878608 0.12939501
0.067676648 -0.091800898 0.12933129
0.068304069 -0.091800898 0.12933129
0.068957217 -0.091723174 0.12926759
0.069610827 -0.091645479 0.1292039
0.070264906 -0.09156777 0.1291402
0.070866592 -0.091645479 0.1292039
0.071521141 -0.09156777 0.1291402
0.072122365 -0.091645479 0.1292039
0.072723113 -0.091723174 0.12926759
0.073350765 -0.091723174 0.12926759
0.073978417 -0.091723174 0.12926759
0.074578218 -0.091800898 0.12933129
0.066372231 -0.092399657 0.1290154
0.067024209 -0.092322096 0.12895152
0.067651391 -0.092322096 0.12895152
0.068329573 -0.09216699 0.12882377
0.068931475 -0.092244551 0.12888765
0.069610827 -0.092089459 0.12875992
0.070238717 -0.092089459 0.12875992
0.070893019 -0.092011914 0.12869605
0.071494475 -0.092089459 0.12875992
0.072122365 -0.092089459 0.12875992
0.072723113 -0.09216699 0.12882377
0.073350765 -0.09216699 0.12882377
0.073978417 -0.09216699 0.12882377
0.074578218 -0.092244551 0.12888765
0.066999175 -0.092842981 0.12857208
0.067651391 -0.092765585 0.12850803
0.068329573 -0.092610806 0.12837996
0.068957217 -0.092610806 0.12837996
0.069610827 -0.092533439 0.12831593
0.070264906 -0.092456073 0.1282519
0.070919462 -0.092378676 0.12818785
0.071547814 -0.092378676 0.12818785
0.072149262 -0.092456073 0.1282519
0.072777376 -0.092456073 0.1282519
0.073378131 -0.092533439 0.12831593
0.074006014 -0.092533439 0.12831593
0.074606061 -0.092610806 0.12837996
0.066999175 -0.093286291 0.12812877
0.067676648 -0.093131855 0.12800035
0.068380557 -0.092900217 0.12780775
0.069034405 -0.092822984 0.12774354
0.069688715 -0.092745766 0.12767935
0.070369706 -0.09259133 0.12755093
0.070998751 -0.09259133 0.12755093
0.071627811 -0.09259133 0.12755093
0.072203062 -0.092745766 0.12767935
0.072804518 -0.092822984 0.12774354
0.07343287 -0.092822984 0.12774354
0.074033618 -0.092900217 0.12780775
0.067752436 -0.093344361 0.12736361
0.068482541 -0.09303613 0.12710613
0.069163054 -0.092882037 0.12697738
0.069792576 -0.092882037 0.12697738
0.070526898 -0.092573822 0.12671991
0.071104489 -0.092727929 0.12684865
0.071787819 -0.092573822 0.12671991
0.072337575 -0.092804968 0.126913
0.072940193 -0.092882037 0.12697738
0.073514976 -0.09303613 0.12710613
0.074116431 -0.093113184 0.12717049
0.068030313 -0.092942744 0.12620957
0.068686515 -0.09286584 0.12614504
0.069368899 -0.09271206 0.12601596
0.070000298 -0.09271206 0.12601596
0.070684098 -0.092558295 0.1258869
0.071315952 -0.092558295 0.1258869
0.071921147 -0.092635185 0.12595144
0.072445177 -0.092942744 0.12620957
0.073075868 -0.092942744 0.12620957
0.073679194 -0.09301962 0.12627411
0.074226849 -0.093250275 0.12646769
0.069549009 -0.092621475 0.1251166
0.070208006 -0.092544779 0.12505192
0.070841283 -0.092544779 0.12505192
0.071474545 -0.092544779 0.12505192
0.072054483 -0.092698216 0.1251813
0.072633483 -0.092851654 0.12531072
0.073184408 -0.093081817 0.12550482
0.073761299 -0.093235269 0.12563421
0.069247432 -0.092073873 0.12382573
0.06990923 -0.091997325 0.12376086
0.070493616 -0.092150435 0.12389061
0.071103275 -0.092226982 0.12395546
0.071686015 -0.092380106 0.12408519
0.07234782 -0.092303559 0.12402034
0.072902501 -0.092533216 0.12421492
0.073320083 -0.093145669 0.12473385
0.070243731 -0.091454193 0.12246552
0.070805192 -0.091683373 0.12266064
0.071443848 -0.091683373 0.12266064
0.072003208 -0.091912538 0.12285571
0.072641164 -0.091912538 0.12285571
0.073225319 -0.092065319 0.12298578
0.070423841 -0.091372713 0.12155706
0.071064837 -0.091372713 0.12155706
0.071679637 -0.091448948 0.12162226
0.072293967 -0.091525167 0.12168746
0.072934501 -0.091525167 0.12168746
0.073601931 -0.091448948 0.12162226
0.070655413 -0.091141433 0.12051554
0.071246594 -0.091293558 0.12064627
0.071889229 -0.091293558 0.12064627
0.072531864 -0.091293558 0.12064627
0.073147833 -0.091369629 0.12071164
0.070139788 -0.091216713 0.11973315
0.070835523 -0.09106493 0.1196021
0.071428344 -0.091216713 0.11973315
0.072072625 -0.091216713 0.11973315
0.072690465 -0.09129259 0.11979868
0.073334508 -0.09129259 0.11979868
0.073978558 -0.09129259 0.11979868
0.069126531 -0.090839282 0.11855495
0.069748126 -0.090915009 0.11862066
0.070394747 -0.090915009 0.11862066
0.070989907 -0.091066465 0.11875202
0.071636058 -0.091066465 0.11875202
0.072229818 -0.091217905 0.11888342
0.072875492 -0.091217905 0.11888342
0.073521182 -0.091217905 0.11888342
0.074166864 -0.091217905 0.11888342
0.069326751 -0.090692177 0.1175707
0.069950223 -0.090767741 0.11763655
0.070573226 -0.09084329 0.11770241
0.071195744 -0.090918869 0.11776827
0.071817815 -0.090994418 0.11783411
0.072413206 -0.091145545 0.11796583
0.073034085 -0.091221109 0.11803171
0.073707849 -0.091145545 0.11796583
0.074328266 -0.091221109 0.11803171
0.069577031 -0.090396911 0.11645171
0.07015232 -0.090623111 0.11664979
0.070751697 -0.09077391 0.11678185
0.071401589 -0.09077391 0.11678185
0.071999565 -0.090924695 0.11691388
0.072570391 -0.091150895 0.11711198
0.073219113 -0.091150895 0.11711198
0.073867843 -0.091150895 0.11711198
0.074516572 -0.091150895 0.11711198
0.069173895 -0.090104997 0.11532946
0.069752224 -0.090330675 0.11552802
0.070329152 -0.090556368 0.11572659
0.070930168 -0.09070684 0.11585897
0.071530238 -0.090857297 0.11599134
0.072129384 -0.091007754 0.11612374
0.072727591 -0.091158226 0.11625612
0.073351286 -0.091233462 0.11632229
0.074001186 -0.091233462 0.11632229
0.069036238 -0.088990629 0.11347394
0.069421835 -0.089816362 0.11420386
0.069877364 -0.090416893 0.11473471
0.070480719 -0.090567023 0.11486742
0.071108639 -0.090642095 0.11493376
0.071684629 -0.090867266 0.11513284
0.072285175 -0.09101741 0.11526555
0.072858579 -0.091242626 0.11546463
0.073483452 -0.091317669 0.11553097
0.074134521 -0.091317669 0.11553097
0.069109917 -0.089231461 0.11280887
0.069570594 -0.089830667 0.11334105
0.070077591 -0.090280041 0.11374018
0.070682824 -0.090429857 0.11387321
0.071261622 -0.090654537 0.11407277
0.071839005 -0.090879261 0.11427234
0.072414994 -0.091103956 0.1144719
0.073041968 -0.091178864 0.11453845
0.073642053 -0.091328636 0.11467147
0.07429453 -0.091328636 0.11467147
0.06923271 -0.089323789 0.11200944
0.069719359 -0.089846939 0.11247624
0.07022775 -0.090295345 0.11287637
0.070834383 -0.090444818 0.11300975
0.07141459 -0.090669006 0.1132098
0.071967654 -0.090967953 0.11347656
0.072570786 -0.091117397 0.11360991
0.073172972 -0.09126687 0.11374329
0.073800638 -0.091341615 0.11380999
0.068767115 -0.089194059 0.11100776
0.069257274 -0.089716047 0.11147574
0.069818534 -0.090014324 0.11174315
0.070377916 -0.090312615 0.11201057
0.070985958 -0.090461731 0.11214426
0.071542069 -0.090760022 0.11241169
0.072122037 -0.090983734 0.11261223
0.072726563 -0.091132864 0.11274594
0.07335636 -0.09120743 0.11281279
0.073959239 -0.091356561 0.11294651
0.068225488 -0.089290217 0.11020452
0.068767115 -0.089662224 0.1105396
0.069355503 -0.089885443 0.11074068
0.069917709 -0.090183049 0.11100873
0.070503056 -0.090406269 0.11120979
0.071061745 -0.09070389 0.11147788
0.071669556 -0.090852663 0.1116119
0.072276421 -0.091001481 0.11174594
0.072856389 -0.0912247 0.11194701
0.073487349 -0.091299102 0.11201403
0.074117832 -0.091373518 0.11208105
0.067753091 -0.0891653 0.10919808
0.068888739 -0.089759201 0.10973553
0.069429189 -0.090130374 0.11007145
0.070041671 -0.090278864 0.11020581
0.07060317 -0.090575814 0.11047457
0.071238585 -0.090650052 0.11054173
0.071822532 -0.090872765 0.1107433
0.07240507 -0.091095477 0.11094485
0.073012173 -0.091243953 0.11107922
0.073644549 -0.091318175 0.11114639
0.074302875 -0.091318175 0.11114639
0.067253336 -0.089117095 0.10825631
0.067848518 -0.089339331 0.10845837
0.068418212 -0.089635611 0.10872777
0.069010362 -0.089857832 0.10892981
0.069601104 -0.090080038 0.10913184
0.070215225 -0.090228185 0.10926655
0.070753336 -0.090598539 0.10960329
0.071390152 -0.090672627 0.10967065
0.071975507 -0.090894833 0.1098727
0.072559454 -0.091117054 0.11007473
0.07319393 -0.091191128 0.11014211
0.067395061 -0.089145139 0.10737976
0.067943946 -0.089514673 0.10771732
0.068538666 -0.089736387 0.10791987
0.069156311 -0.089884207 0.10805489
0.069748454 -0.090105921 0.10825744
0.070339195 -0.09032765 0.10845999
0.070928529 -0.09054935 0.10866253
0.071566984 -0.090623289 0.10873005
0.072179474 -0.090771094 0.10886508
0.072739564 -0.091066688 0.10913514
0.07337568 -0.091140628 0.10920265
0.074037522 -0.091140628 0.10920265
0.068683207 -0.089765102 0.10704266
0.069277935 -0.089986309 0.10724568
0.069920376 -0.09006004 0.10731336
0.070512749 -0.090281278 0.10751642
0.071103722 -0.090502486 0.10771945
0.071743816 -0.090576246 0.10778713
0.072332457 -0.090797469 0.10799018
0.072945409 -0.090944946 0.10812555
0.073583394 -0.091018677 0.1081932
0.074247114 -0.091018677 0.1081932
0.06827794 -0.089427888 0.1058242
0.068851843 -0.089722201 0.10609561
0.069423892 -0.090016484 0.10636698
0.070067726 -0.090090081 0.10643482
0.070711099 -0.090163648 0.10650267
0.071278915 -0.090457946 0.10677405
0.071920656 -0.090531513 0.10684189
0.072510928 -0.090752259 0.10704544
0.07317698 -0.090752259 0.10704544
0.073765151 -0.09097296 0.10724898
0.074430503 -0.09097296 0.10724898
0.067891143 -0.089020938 0.10453409
0.068444937 -0.089387983 0.10487418
0.069020487 -0.08968161 0.1051462
0.069618486 -0.08990185 0.10535026
0.070239641 -0.090048671 0.10548629
0.070884652 -0.090122074 0.10555428
0.071479142 -0.090342298 0.10575831
0.072097488 -0.090489119 0.10589434
0.072714895 -0.09063594 0.10603037
0.07335709 -0.090709358 0.1060984
0.073998831 -0.090782762 0.10616638
0.074613899 -0.090929583 0.10630241
0.067405157 -0.088910937 0.10351275
0.067985624 -0.089203909 0.10378546
0.068588078 -0.089423642 0.10398999
0.069165029 -0.089716613 0.10426269
0.069764443 -0.089936346 0.10446723
0.07043612 -0.089936346 0.10446723
0.071058206 -0.090082839 0.10460359
0.071654335 -0.090302557 0.10480811
0.072249055 -0.090522304 0.10501266
0.072893374 -0.090595543 0.10508083
0.073537201 -0.090668797 0.10514902
0.074206538 -0.090668797 0.10514902
0.074849688 -0.090742037 0.10521717
0.066892281 -0.08887665 0.10255709
0.067545488 -0.08894971 0.10262541
0.068150982 -0.089168966 0.10283045
0.068731219 -0.089461252 0.10310382
0.069333665 -0.089680508 0.10330886
0.069934718 -0.089899749 0.10351388
0.070608035 -0.089899749 0.10351388
0.071206972 -0.09011896 0.10371891
0.071854554 -0.09019205 0.10378726
0.072476409 -0.090338215 0.10392395
0.073122837 -0.090411291 0.10399228
0.073743045 -0.090557456 0.10412897
0.074414261 -0.090557456 0.10412897
0.066961743 -0.089136332 0.10187313
0.067615651 -0.089209244 0.10194165
0.068198226 -0.089500904 0.10221568
0.068826646 -0.089646727 0.10235269
0.069454126 -0.089792535 0.10248971
0.070104994 -0.089865461 0.10255823
0.070755392 -0.089938357 0.10262671
0.071405314 -0.090011299 0.10269523
0.072029747 -0.090157107 0.10283226
0.072678514 -0.090230018 0.10290076
0.073326796 -0.090302944 0.10296927
0.073974617 -0.090375856 0.10303777
0.066421963 -0.089178771 0.10098216
0.067054361 -0.089324281 0.10111952
0.067662433 -0.089542508 0.10132553
0.06831634 -0.089615256 0.10139421
0.068922073 -0.089833498 0.10160024
0.069550484 -0.089979008 0.10173757
0.070226617 -0.089979008 0.10173757
0.070878185 -0.090051726 0.10180625
0.071529284 -0.090124488 0.10187493
0.07220494 -0.090124488 0.10187493
0.072830088 -0.090269968 0.10201228
0.073479779 -0.09034273 0.10208096
0.074154727 -0.09034273 0.10208096
0.065856688 -0.08929579 0.10015805
0.066444889 -0.089586109 0.10043339
0.067100666 -0.089658692 0.10050225
0.067755982 -0.089731276 0.10057107
0.068410829 -0.08980386 0.10063994
0.0690175 -0.090021595 0.10084644
0.069670938 -0.090094179 0.1009153
0.07034824 -0.090094179 0.1009153
0.071000978 -0.090166762 0.10098413
0.071678042 -0.090166762 0.10098413
0.072305053 -0.09031193 0.10112181
0.072956391 -0.090384498 0.10119063
0.073632762 -0.090384498 0.10119063
0.074309118 -0.090384498 0.10119063
0.065902054 -0.089631706 0.099539295
0.066536561 -0.089776546 0.099677294
0.067216434 -0.089776546 0.099677294
0.067826152 -0.089993775 0.099884316
0.068481706 -0.09006618 0.099953324
0.069136783 -0.090138614 0.10002233
0.069791399 -0.090211019 0.10009132
0.070469871 -0.090211019 0.10009132
0.071123779 -0.090283453 0.10016035
0.071802013 -0.090283453 0.10016035
0.072430186 -0.090428278 0.10029835
0.0730827 -0.090500683 0.10036735
0.073760234 -0.090500683 0.10036735
0.074437767 -0.090500683 0.10036735
0.075141266 -0.090428278 0.10029835
0.065947428 -0.089968264 0.098919868
0.066582404 -0.090112776 0.099058226
0.067262746 -0.090112776 0.099058226
0.067919701 -0.090185016 0.099127382
0.068552569 -0.090329513 0.099265724
0.069232211 -0.090329513 0.099265724
0.069911852 -0.090329513 0.099265724
0.070542842 -0.090474024 0.099404067
0.071222015 -0.090474024 0.099404067
0.071876399 -0.090546265 0.099473238
0.072530299 -0.090618521 0.099542424
0.073234275 -0.090546265 0.099473238
0.073913217 -0.090546265 0.099473238
0.074592151 -0.090546265 0.099473238
0.065970115 -0.090377584 0.098369122
0.066651165 -0.090377584 0.098369122
0.067332216 -0.090377584 0.098369122
0.067943089 -0.09059386 0.098577142
0.068623438 -0.09059386 0.098577142
0.069279924 -0.090665936 0.098646462
0.069984123 -0.09059386 0.098577142
0.070640147 -0.090665936 0.098646462
0.071320251 -0.090665936 0.098646462
0.071975566 -0.090738028 0.098715812
0.072655439 -0.090738028 0.098715812
0.07333532 -0.090738028 0.098715812
0.073989704 -0.09081009 0.098785147
0.074669339 -0.09081009 0.098785147
0.065992802 -0.090787247 0.097818047
0.066674083 -0.090787247 0.097818047
0.067355365 -0.090787247 0.097818047
0.068013258 -0.09085916 0.097887546
0.068694308 -0.09085916 0.097887546
0.069375351 -0.09085916 0.097887546
0.070056401 -0.09085916 0.097887546
0.070737444 -0.09085916 0.097887546
0.071418494 -0.09085916 0.097887546
0.072099537 -0.09085916 0.097887546
0.072755553 -0.090931088 0.09795706
0.073436365 -0.090931088 0.09795706
0.074117184 -0.090931088 0.09795706
0.074823722 -0.09085916 0.097887546
0.066015482 -0.091197252 0.097266644
0.066697001 -0.091197252 0.097266644
0.067424826 -0.091053739 0.097127318
0.068106808 -0.091053739 0.097127318
0.068788789 -0.091053739 0.097127318
0.069494635 -0.090981975 0.097057641
0.070176847 -0.090981975 0.097057641
0.070859075 -0.090981975 0.097057641
0.071541287 -0.090981975 0.097057641
0.072223507 -0.090981975 0.097057641
0.072880685 -0.091053739 0.097127318
0.073562674 -0.091053739 0.097127318
0.074244663 -0.091053739 0.097127318
0.074952371 -0.090981975 0.097057641
0.066060856 -0.091535971 0.096645087
0.066765763 -0.09146437 0.096575245
0.067471132 -0.091392785 0.096505418
0.068176977 -0.091321185 0.096435577
0.068859667 -0.091321185 0.096435577
0.069590062 -0.091178015 0.096295893
0.070297301 -0.09110643 0.096226066
0.070980698 -0.09110643 0.096226066
0.07166408 -0.09110643 0.096226066
0.07234747 -0.09110643 0.096226066
0.073005833 -0.091178015 0.096295893
0.073688991 -0.091178015 0.096295893
0.07437215 -0.091178015 0.096295893
0.066880368 -0.091589659 0.095742837
0.067586899 -0.091518253 0.095672861
0.068270527 -0.091518253 0.095672861
0.068977773 -0.091446817 0.09560284
0.069733202 -0.091232553 0.095392853
0.070417754 -0.091232553 0.095392853
0.071102321 -0.091232553 0.095392853
0.07178688 -0.091232553 0.095392853
0.072471432 -0.091232553 0.095392853
0.073155992 -0.091232553 0.095392853
0.073840559 -0.091232553 0.095392853
0.074525118 -0.091232553 0.095392853
0.067679517 -0.091716602 0.094908804
0.068387471 -0.091645345 0.094838619
0.069095887 -0.091574088 0.094768465
0.069804773 -0.091502815 0.094698295
0.070562303 -0.091289058 0.094487816
0.071248271 -0.091289058 0.094487816
0.071934238 -0.091289058 0.094487816
0.072595403 -0.091360331 0.094557986
0.073306166 -0.091289058 0.094487816
0.073966861 -0.091360331 0.094557986
0.067818448 -0.091774121 0.094002753
0.068527795 -0.091703027 0.093932435
0.069261245 -0.091560841 0.093791768
0.06997177 -0.091489732 0.093721434
0.070706852 -0.091347545 0.093580768
0.071394227 -0.091347545 0.093580768
0.072032474 -0.091489732 0.093721434
0.072744168 -0.091418669 0.093651101
0.073431298 -0.091418669 0.093651101
0.074118435 -0.091418669 0.093651101
0.068714909 -0.091620833 0.092883244
0.069497474 -0.091337115 0.092601255
0.070186481 -0.091337115 0.092601255
0.070899576 -0.091266215 0.092530772
0.071588822 -0.091266215 0.092530772
0.072278067 -0.091266215 0.092530772
0.072967306 -0.091266215 0.092530772
0.073631525 -0.091337115 0.092601255
0.068258375 -0.091399774 0.091690093
0.068972178 -0.091329008 0.091619417
0.069733694 -0.091116741 0.091407448
0.070425048 -0.091116741 0.091407448
0.07114049 -0.091045976 0.091336772
0.07180775 -0.091116741 0.091407448
0.072499096 -0.091116741 0.091407448
0.073190451 -0.091116741 0.091407448
0.073881797 -0.091116741 0.091407448
0.069182672 -0.091182038 0.090493605
0.069946297 -0.090970248 0.090281144
0.070639752 -0.090970248 0.090281144
0.071333215 -0.090970248 0.090281144
0.071978025 -0.091111436 0.090422809
0.072646454 -0.091182038 0.090493605
0.073364004 -0.091111436 0.090422809
0.074031964 -0.091182038 0.090493605
0.070158899 -0.090826735 0.089151859
0.070806749 -0.090967596 0.089293852
0.071501851 -0.090967596 0.089293852
0.072196953 -0.090967596 0.089293852
0.07286749 -0.091038018 0.089364842
0.073562354 -0.091038018 0.089364842
0.074257217 -0.091038018 0.089364842
0.070277013 -0.090967268 0.088304237
0.070997611 -0.090896994 0.088233069
0.071694583 -0.090896994 0.088233069
0.072391555 -0.090896994 0.088233069
0.073113084 -0.090826735 0.088161916
0.073686317 -0.091178045 0.088517696
0.070607729 -0.090478584 0.086813033
0.071307741 -0.090478584 0.086813033
0.071959578 -0.090618744 0.086955667
0.072659135 -0.090618744 0.086955667
0.073309556 -0.09075895 0.087098315
0.070891201 -0.090134367 0.085460156
0.071570165 -0.090204298 0.085531667
0.072176397 -0.090484008 0.085817605
0.072878055 -0.090484008 0.085817605
0.073530592 -0.090623885 0.085960582
0.071103804 -0.090003446 0.08431828
0.071784876 -0.090073213 0.084389955
0.072393216 -0.090352282 0.084676549
0.073072657 -0.090422049 0.084748223
0.073702507 -0.090631336 0.084963188
0.070843242 -0.089179501 0.082455248
0.071552627 -0.089179501 0.082455248
0.072238155 -0.089249104 0.082527041
0.072850943 -0.089527503 0.082814336
0.073583476 -0.089457914 0.082742527
0 0 0 1 0 0 0 1 0 0 0 1 0 0 0 0 0 570 1 0 0
