ply
format ascii 1.0
comment PCL generated
element vertex 512
property float x
property float y
property float z
element camera 1
property float view_px
property float view_py
property float view_pz
property float x_axisx
property float x_axisy
property float x_axisz
property float y_axisx
property float y_axisy
property float y_axisz
property float z_axisx
property float z_axisy
property float z_axisz
property float focal
property float scalex
property float scaley
property float centerx
property float centery
property int viewportx
property int viewporty
property float k1
property float k2
end_header
0.070343509 -0.088666752 0.13161692
0.068431549 -0.089189947 0.13123517
0.069085866 -0.089111388 0.13117227
0.069688715 -0.089189947 0.13123517
0.070291109 -0.089268491 0.13129804
0.070919462 -0.089268491 0.13129804
0.071521141 -0.089347035 0.13136092
0.072095469 -0.089504093 0.13148665
0.067149349 -0.089712799 0.13085373
0.067777701 -0.089712799 0.13085373
0.068406053 -0.089712799 0.13085373
0.069034405 -0.089712799 0.13085373
0.069662757 -0.089712799 0.13085373
0.070291109 -0.089712799 0.13085373
0.070893019 -0.089791179 0.13091677
0.071494475 -0.089869559 0.13097982
0.072122365 -0.089869559 0.13097982
0.072695971 -0.090026304 0.1311059
0.066471405 -0.090313539 0.13053584
0.067099288 -0.090313539 0.13053584
0.067752436 -0.090235338 0.13047263
0.068380557 -0.090235338 0.13047263
0.069034405 -0.090157107 0.13040942
0.069662757 -0.090157107 0.13040942
0.070264906 -0.090235338 0.13047263
0.070866592 -0.090313539 0.13053584
0.071467817 -0.090391725 0.13059902
0.072095469 -0.090391725 0.13059902
0.072668836 -0.090548158 0.13072546
0.073268652 -0.090626389 0.13078867
0.066446617 -0.090835541 0.13015521
0.067099288 -0.090757519 0.13009186
0.067701921 -0.090835541 0.13015521
0.068380557 -0.090679482 0.13002849
0.068982944 -0.090757519 0.13009186
0.069636784 -0.090679482 0.13002849
0.070264906 -0.090679482 0.13002849
0.070840165 -0.090835541 0.13015521
0.071467817 -0.090835541 0.13015521
0.072068557 -0.090913609 0.1302186
0.072641701 -0.091069698 0.13034534
0.073268652 -0.091069698 0.13034534
0.073867999 -0.091147751 0.13040872
0.065794408 -0.091357261 0.12977494
0.066421822 -0.091357261 0.12977494
0.067074262 -0.091279358 0.12971139
0.067676648 -0.091357261 0.12977494
0.068329573 -0.091279358 0.12971139
0.068957217 -0.091279358 0.12971139
0.069584869 -0.091279358 0.12971139
0.070238717 -0.091201499 0.12964788
0.070840165 -0.091279358 0.12971139
0.071467817 -0.091279358 0.12971139
0.072041661 -0.091435134 0.12983848
0.072641701 -0.091513023 0.12990203
0.073241286 -0.091590896 0.12996557
0.073867999 -0.091590896 0.12996557
0.074466862 -0.091668785 0.13002911
0.065769851 -0.091878608 0.12939501
0.066397026 -0.091878608 0.12939501
0.067049235 -0.091800898 0.12933129
0.067676648 -0.091800898 0.12933129
0.068304069 -0.091800898 0.12933129
0.068957217 -0.091723174 0.12926759
0.069584869 -0.091723174 0.12926759
0.070212521 -0.091723174 0.12926759
0.070813723 -0.091800898 0.12933129
0.071467817 -0.091723174 0.12926759
0.072041661 -0.091878608 0.12939501
0.072614565 -0.092034042 0.12952241
0.073241286 -0.092034042 0.12952241
0.073867999 -0.092034042 0.12952241
0.074466862 -0.092111781 0.12958613
0.065769851 -0.092322096 0.12895152
0.066397026 -0.092322096 0.12895152
0.067049235 -0.092244551 0.12888765
0.067651391 -0.092322096 0.12895152
0.068304069 -0.092244551 0.12888765
0.068931475 -0.092244551 0.12888765
0.069584869 -0.09216699 0.12882377
0.070212521 -0.09216699 0.12882377
0.070840165 -0.09216699 0.12882377
0.071441144 -0.092244551 0.12888765
0.072041661 -0.092322096 0.12895152
0.072641701 -0.092399657 0.1290154
0.073268652 -0.092399657 0.1290154
0.073867999 -0.092477202 0.12907927
0.074466862 -0.092554763 0.12914315
0.066397026 -0.092765585 0.12850803
0.067049235 -0.092688203 0.128444
0.067676648 -0.092688203 0.128444
0.068329573 -0.092610806 0.12837996
0.068957217 -0.092610806 0.12837996
0.069610827 -0.092533439 0.12831593
0.070212521 -0.092610806 0.12837996
0.070840165 -0.092610806 0.12837996
0.071467817 -0.092610806 0.12837996
0.072068557 -0.092688203 0.128444
0.072668836 -0.092765585 0.12850803
0.073268652 -0.092842981 0.12857208
0.073895596 -0.092842981 0.12857208
0.074494705 -0.092920363 0.12863611
0.066397026 -0.093209058 0.12806454
0.067024209 -0.093209058 0.12806454
0.067701921 -0.093054622 0.12793614
0.068380557 -0.092900217 0.12780775
0.069034405 -0.092822984 0.12774354
0.069610827 -0.092977419 0.12787196
0.070264906 -0.092900217 0.12780775
0.070919462 -0.092822984 0.12774354
0.071521141 -0.092900217 0.12780775
0.072122365 -0.092977419 0.12787196
0.072695971 -0.093131855 0.12800035
0.073296025 -0.093209058 0.12806454
0.073867999 -0.093363509 0.12819296
0.067074262 -0.093498439 0.12749232
0.067727178 -0.0934214 0.12742797
0.068482541 -0.09303613 0.12710613
0.069060132 -0.093190253 0.12723486
0.069662757 -0.093267292 0.12729923
0.070317306 -0.093190253 0.12723486
0.070998751 -0.09303613 0.12710613
0.071601145 -0.093113184 0.12717049
0.072149262 -0.093344361 0.12736361
0.072668836 -0.093652546 0.12762107
0.073268652 -0.093729615 0.12768544
0.067954533 -0.0931734 0.12640318
0.068635523 -0.09301962 0.12627411
0.069291703 -0.092942744 0.12620957
0.069922395 -0.092942744 0.12620957
0.070579298 -0.09286584 0.12614504
0.07121022 -0.09286584 0.12614504
0.071787819 -0.09301962 0.12627411
0.072256871 -0.093480945 0.12666132
0.072831646 -0.093634725 0.12679039
0.073405497 -0.093788505 0.12691946
0.068131365 -0.093081817 0.12550482
0.068813995 -0.09292838 0.1253754
0.069471814 -0.092851654 0.12531072
0.070104152 -0.092851654 0.12531072
0.070736483 -0.092851654 0.12531072
0.071395248 -0.092774928 0.125246
0.071974486 -0.09292838 0.1253754
0.073624454 -0.09361887 0.12595771
0.069145441 -0.092380106 0.12408519
0.070441693 -0.092303559 0.12402034
0.071129471 -0.092150435 0.12389061
0.071871042 -0.091844201 0.12363113
0.071090803 -0.091296494 0.12149186
0.07175824 -0.09122026 0.12142666
0.072426133 -0.09114404 0.12136146
0.071246594 -0.091293558 0.12064627
0.071941629 -0.091141433 0.12051554
0.072584733 -0.091141433 0.12051554
0.073254503 -0.091065377 0.12045018
0.073978558 -0.090837181 0.12025408
0.069621816 -0.09083724 0.11940552
0.070267268 -0.09083724 0.11940552
0.070912711 -0.09083724 0.11940552
0.071506232 -0.090989038 0.11953658
0.072125018 -0.09106493 0.1196021
0.072743326 -0.091140836 0.11966763
0.073387839 -0.091140836 0.11966763
0.074059255 -0.09106493 0.1196021
0.069798648 -0.090763554 0.11848927
0.07042025 -0.090839282 0.11855495
0.071067095 -0.090839282 0.11855495
0.071687981 -0.090915009 0.11862066
0.072282217 -0.091066465 0.11875202
0.072928362 -0.091066465 0.11875202
0.07354784 -0.091142192 0.11881775
0.074193761 -0.091142192 0.11881775
0.069950223 -0.090767741 0.11763655
0.070598722 -0.090767741 0.11763655
0.071221478 -0.09084329 0.11770241
0.071843773 -0.090918869 0.11776827
0.072413206 -0.091145545 0.11796583
0.073034085 -0.091221109 0.11803171
0.073707849 -0.091145545 0.11796583
0.07435517 -0.091145545 0.11796583
0.070177577 -0.090547711 0.11658378
0.070802689 -0.090623111 0.11664979
0.071350127 -0.090924695 0.11691388
0.071999565 -0.090924695 0.11691388
0.072596595 -0.091075495 0.11704594
0.073192686 -0.091226295 0.11717799
0.073841184 -0.091226295 0.11717799
0.074489675 -0.091226295 0.11717799
0.075111032 -0.09130168 0.11724402
0.069049932 -0.090481147 0.1156604
0.069627091 -0.09070684 0.11585897
0.07027863 -0.09070684 0.11585897
0.070879176 -0.090857297 0.11599134
0.071504503 -0.090932548 0.11605754
0.072129384 -0.091007754 0.11612374
0.072727591 -0.091158226 0.11625612
0.073351286 -0.091233462 0.11632229
0.073947854 -0.091383904 0.11645468
0.074597284 -0.091383904 0.11645468
0.069223486 -0.090416893 0.11473471
0.069827311 -0.090567023 0.11486742
0.070430197 -0.090717167 0.11500014
0.071032159 -0.090867266 0.11513284
0.071658894 -0.090942353 0.11519919
0.072207272 -0.091242626 0.11546463
0.072832383 -0.091317669 0.11553097
0.07345701 -0.091392756 0.11559734
0.074054524 -0.09154287 0.11573003
0.074704893 -0.09154287 0.11573003
0.069372252 -0.090429857 0.11387321
0.070002504 -0.090504766 0.11393975
0.070581771 -0.090729445 0.1141393
0.071185127 -0.090879261 0.11427234
0.071736082 -0.091178864 0.11453845
0.072363064 -0.091253743 0.11460495
0.072963379 -0.091403559 0.11473799
0.073536314 -0.091628253 0.11493756
0.07418786 -0.091628253 0.11493756
0.069521002 -0.090444818 0.11300975
0.07015267 -0.090519547 0.11307642
0.070733346 -0.090743735 0.11327648
0.071287118 -0.091042683 0.11354323
0.071890466 -0.091192141 0.11367661
0.072518855 -0.09126687 0.11374329
0.073094368 -0.091491088 0.11394337
0.073721342 -0.091565818 0.11401004
0.074347854 -0.091640562 0.11407673
0.069036238 -0.090387166 0.1120774
0.069669768 -0.090461731 0.11214426
0.07027781 -0.090610877 0.11227798
0.070859656 -0.090834588 0.11247854
0.071440093 -0.091058284 0.11267908
0.072044849 -0.09120743 0.11281279
0.072622709 -0.091431141 0.11301337
0.07325156 -0.091505706 0.1130802
0.073879942 -0.091580257 0.11314705
0.068548188 -0.090331852 0.11114277
0.069159031 -0.090480655 0.11127682
0.069768943 -0.090629473 0.11141086
0.070377916 -0.090778291 0.11154489
0.070985958 -0.090927079 0.11167893
0.071593069 -0.091075897 0.11181296
0.072173499 -0.091299102 0.11201403
0.072778493 -0.09144792 0.11214805
0.07340876 -0.091522306 0.11221506
0.068669811 -0.090427339 0.11034019
0.069281831 -0.090575814 0.11047457
0.069892913 -0.090724304 0.11060894
0.07052809 -0.090798512 0.11067611
0.07116279 -0.090872765 0.1107433
0.071720548 -0.09116973 0.11101204
0.072353609 -0.091243953 0.11107922
0.072960243 -0.091392428 0.11121358
0.073618345 -0.091392428 0.11121358
0.068225488 -0.090228185 0.10926655
0.068840086 -0.090376332 0.10940126
0.069404624 -0.090672627 0.10967065
0.070041671 -0.090746686 0.10973799
0.070703283 -0.090746686 0.10973799
0.071314365 -0.090894833 0.1098727
0.071899027 -0.091117054 0.11007473
0.072507992 -0.091265187 0.11020944
0.073167965 -0.091265187 0.11020944
0.073801734 -0.091339275 0.11027679
0.068370037 -0.090253726 0.10839248
0.06896171 -0.09047547 0.10859503
0.069601104 -0.09054935 0.10866253
0.070165642 -0.090844989 0.1089326
0.070878476 -0.090697169 0.10879757
0.071491197 -0.090844989 0.1089326
0.072077498 -0.091066688 0.10913514
0.07271383 -0.091140628 0.10920265
0.07337568 -0.091140628 0.10920265
0.068610936 -0.089986309 0.10724568
0.069156311 -0.090355009 0.10758407
0.069748454 -0.090576246 0.10778713
0.070413575 -0.090576246 0.10778713
0.071053669 -0.090649977 0.10785481
0.071668029 -0.090797469 0.10799018
0.072332457 -0.090797469 0.10799018
0.072919682 -0.091018677 0.1081932
0.073583394 -0.091018677 0.1081932
0.068827756 -0.089795783 0.10616343
0.069375239 -0.090163648 0.10650267
0.070018604 -0.09023723 0.10657053
0.070611924 -0.090457946 0.10677405
0.071203835 -0.090678662 0.10697758
0.071870133 -0.090678662 0.10697758
0.072485432 -0.090825826 0.10711327
0.073151253 -0.090825826 0.10711327
0.073817074 -0.090825826 0.10711327
0.068373367 -0.089608222 0.10507821
0.068948209 -0.08990185 0.10535026
0.069521189 -0.090195507 0.10562231
0.070141405 -0.090342298 0.10575831
0.070810273 -0.090342298 0.10575831
0.071404055 -0.090562537 0.10596237
0.0720217 -0.090709358 0.1060984
0.072689399 -0.090709358 0.1060984
0.073331363 -0.090782762 0.10616638
0.073998831 -0.090782762 0.10616638
0.068468794 -0.089789852 0.10433087
0.069092758 -0.089936346 0.10446723
0.06971579 -0.090082839 0.10460359
0.070337877 -0.090229318 0.10473993
0.070959032 -0.090375811 0.10487629
0.071579248 -0.090522304 0.10501266
0.072223797 -0.090595543 0.10508083
0.072893374 -0.090595543 0.10508083
0.073511474 -0.090742037 0.10521717
0.068611935 -0.089826673 0.10344554
0.069237307 -0.089972809 0.1035822
0.069837414 -0.09019205 0.10378726
0.070485234 -0.090265125 0.10385559
0.071132585 -0.090338215 0.10392395
0.071779475 -0.090411291 0.10399228
0.07240063 -0.090557456 0.10412897
0.073046349 -0.090630502 0.10419729
0.073717318 -0.090630502 0.10419729
0.068056501 -0.089938357 0.10262671
0.068755075 -0.089865461 0.10255823
0.069381848 -0.090011299 0.10269523
0.070007689 -0.090157107 0.10283226
0.070657149 -0.090230018 0.10290076
0.071306139 -0.090302944 0.10296927
0.071954668 -0.090375856 0.10303777
0.072602727 -0.090448752 0.10310628
0.073275812 -0.090448752 0.10310628
0.073871695 -0.090667501 0.10331181
0.068174608 -0.090051726 0.10180625
0.068826646 -0.090124488 0.10187493
0.069454126 -0.090269968 0.10201228
0.070177965 -0.090124488 0.10187493
0.070804507 -0.090269968 0.10201228
0.071454905 -0.09034273 0.10208096
0.072129861 -0.09034273 0.10208096
0.072779559 -0.090415463 0.10214961
0.073454283 -0.090415463 0.10214961
0.074103266 -0.090488225 0.1022183
0.067568876 -0.09031193 0.10112181
0.068245478 -0.09031193 0.10112181
0.068922073 -0.09031193 0.10112181
0.06964685 -0.090166762 0.10098413
0.070323914 -0.090166762 0.10098413
0.070951864 -0.09031193 0.10112181
0.071603663 -0.090384498 0.10119063
0.072254993 -0.090457097 0.10125948
0.072931126 -0.090457097 0.10125948
0.073607258 -0.090457097 0.10125948
0.074283384 -0.090457097 0.10125948
0.067685813 -0.090428278 0.10029835
0.068339966 -0.090500683 0.10036735
0.069041356 -0.090428278 0.10029835
0.069695033 -0.090500683 0.10036735
0.070396893 -0.090428278 0.10029835
0.071074657 -0.090428278 0.10029835
0.071727633 -0.090500683 0.10036735
0.072405167 -0.090500683 0.10036735
0.073057435 -0.090573102 0.10043637
0.073734738 -0.090573102 0.10043637
0.074412033 -0.090573102 0.10043637
0.067755982 -0.090690777 0.099611565
0.068434462 -0.090690777 0.099611565
0.069136783 -0.090618521 0.099542424
0.069815487 -0.090618521 0.099542424
0.07049419 -0.090618521 0.099542424
0.071197458 -0.090546265 0.099473238
0.071826808 -0.090690777 0.099611565
0.07250528 -0.090690777 0.099611565
0.073183753 -0.090690777 0.099611565
0.073862225 -0.090690777 0.099611565
0.07454069 -0.090690777 0.099611565
0.067802764 -0.091026351 0.098993152
0.068481706 -0.091026351 0.098993152
0.069184497 -0.090954274 0.098923817
0.069911852 -0.09081009 0.098785147
0.070591494 -0.09081009 0.098785147
0.071295694 -0.090738028 0.098715812
0.071950771 -0.09081009 0.098785147
0.072630413 -0.09081009 0.098785147
0.073259532 -0.090954274 0.098923817
0.073989704 -0.09081009 0.098785147
0.074617878 -0.090954274 0.098923817
0.067896314 -0.09121877 0.098235071
0.068576187 -0.09121877 0.098235071
0.069279924 -0.091146842 0.098165557
0.069984123 -0.091074929 0.098096073
0.070713118 -0.090931088 0.09795706
0.071393929 -0.090931088 0.09795706
0.072074741 -0.090931088 0.09795706
0.072705492 -0.091074929 0.098096073
0.073385842 -0.091074929 0.098096073
0.074117184 -0.090931088 0.09795706
0.074746527 -0.091074929 0.098096073
0.068060026 -0.091197252 0.097266644
0.068741545 -0.091197252 0.097266644
0.069470771 -0.091053739 0.097127318
0.07015276 -0.091053739 0.097127318
0.070859075 -0.090981975 0.097057641
0.071541287 -0.090981975 0.097057641
0.072198704 -0.091053739 0.097127318
0.072880685 -0.091053739 0.097127318
0.073562674 -0.091053739 0.097127318
0.074244663 -0.091053739 0.097127318
0.069637768 -0.091034859 0.096156254
0.070321389 -0.091034859 0.096156254
0.071005017 -0.091034859 0.096156254
0.07166408 -0.09110643 0.096226066
0.07234747 -0.09110643 0.096226066
0.073030859 -0.09110643 0.096226066
0.073714249 -0.09110643 0.096226066
0.07437215 -0.091178015 0.096295893
0.069119513 -0.091018274 0.095182836
0.069852479 -0.090875447 0.095042869
0.070490032 -0.091018274 0.095182836
0.071150973 -0.091089696 0.095252857
0.071811438 -0.091161117 0.095322847
0.072471432 -0.091232553 0.095392853
0.073181026 -0.091161117 0.095322847
0.073865823 -0.091161117 0.095322847
0.074525118 -0.091232553 0.095392853
0.068597965 -0.091004029 0.094207138
0.06930849 -0.090932786 0.094136983
0.069995627 -0.090932786 0.094136983
0.070658669 -0.091004029 0.094207138
0.071321249 -0.091075301 0.094277307
0.071958795 -0.091217816 0.094417647
0.072620198 -0.091289058 0.094487816
0.073331185 -0.091217816 0.094417647
0.073992133 -0.091289058 0.094487816
0.0681426 -0.090778843 0.093018144
0.068831846 -0.090778843 0.093018144
0.069521092 -0.090778843 0.093018144
0.070210338 -0.090778843 0.093018144
0.070827305 -0.090992108 0.093229115
0.071491517 -0.091063201 0.093299463
0.072155267 -0.091134295 0.093369782
0.072843343 -0.091134295 0.093369782
0.073506378 -0.091205388 0.09344013
0.0741437 -0.091347545 0.093580768
0.068350993 -0.090627879 0.09189631
0.06904234 -0.090627879 0.09189631
0.069733694 -0.090627879 0.09189631
0.070377328 -0.090769738 0.092037305
0.071044125 -0.090840638 0.092107788
0.071710445 -0.090911582 0.092178285
0.072327182 -0.091124356 0.092389777
0.073016897 -0.091124356 0.092389777
0.073681578 -0.091195285 0.092460245
0.074345797 -0.091266215 0.092530772
0.06846676 -0.090762943 0.091054142
0.069159284 -0.090762943 0.091054142
0.069875434 -0.090692177 0.090983465
0.070544325 -0.090762943 0.091054142
0.071236849 -0.090762943 0.091054142
0.071905054 -0.090833694 0.091124788
0.072523661 -0.091045976 0.091336772
0.073215246 -0.091045976 0.091336772
0.073881797 -0.091116741 0.091407448
0.074497372 -0.091329008 0.091619417
0.068582535 -0.090899646 0.090210304
0.069276229 -0.090899646 0.090210304
0.069993541 -0.090829059 0.090139478
0.070687473 -0.090829059 0.090139478
0.071381398 -0.090829059 0.090139478
0.072026677 -0.090970248 0.090281144
0.072671011 -0.091111436 0.090422809
0.073413588 -0.090970248 0.090281144
0.074031964 -0.091182038 0.090493605
0.074724726 -0.091182038 0.090493605
0.069393165 -0.091038018 0.089364842
0.070111655 -0.090967596 0.089293852
0.070806749 -0.090967596 0.089293852
0.071501851 -0.090967596 0.089293852
0.072172627 -0.091038018 0.089364842
0.07286749 -0.091038018 0.089364842
0.073537558 -0.091108456 0.089435846
0.074232183 -0.091108456 0.089435846
0.069673829 -0.090686202 0.088019595
0.070371501 -0.090686202 0.088019595
0.07102146 -0.090826735 0.088161916
0.07171867 -0.090826735 0.088161916
0.072391555 -0.090896994 0.088233069
0.073063962 -0.090967268 0.088304237
0.073735908 -0.091037527 0.088375375
0.069790766 -0.090829059 0.087169647
0.070607729 -0.090478584 0.086813033
0.071307741 -0.090478584 0.086813033
0.071983665 -0.090548664 0.08688435
0.072659135 -0.090618744 0.086955667
0.073284999 -0.090829059 0.087169647
0.073959053 -0.090899155 0.087240964
0.070211753 -0.090064436 0.085388675
0.070891201 -0.090134367 0.085460156
0.071498595 -0.090414107 0.085746124
0.072128214 -0.090623885 0.085960582
0.072829403 -0.090623885 0.085960582
0.07348147 -0.090763748 0.086103573
0.06985601 -0.089515075 0.083816707
0.070469029 -0.089794159 0.084103331
0.071151048 -0.089863911 0.084174976
0.071713306 -0.090282515 0.084604919
0.072320938 -0.090561569 0.084891543
0.073024005 -0.090561569 0.084891543
0.073677942 -0.090701118 0.085034847
0.069447398 -0.089109898 0.082383409
0.070110708 -0.089249104 0.082527041
0.07077308 -0.089388296 0.082670689
0.071458139 -0.089457914 0.082742527
0.072071165 -0.089736298 0.083029792
0.072754577 -0.089805916 0.08310163
0.073413208 -0.089945123 0.083245263
0 0 0 1 0 0 0 1 0 0 0 1 0 0 0 0 0 512 1 0 0
