ply
format ascii 1.0
comment PCL generated
element vertex 599
property float x
property float y
property float z
element camera 1
property float view_px
property float view_py
property float view_pz
property float x_axisx
property float x_axisy
property float x_axisz
property float y_axisx
property float y_axisy
property float y_axisz
property float z_axisx
property float z_axisy
property float z_axisz
property float focal
property float scalex
property float scaley
property float centerx
property float centery
property int viewportx
property int viewporty
property float k1
property float k2
end_header
0.069188789 -0.088351905 0.13136606
0.069818549 -0.088351905 0.13136606
0.070448309 -0.088351905 0.13136606
0.07105162 -0.088430643 0.13142878
0.067853481 -0.089032859 0.1311094
0.068482541 -0.089032859 0.1311094
0.069163054 -0.088875771 0.13098364
0.069766618 -0.0889543 0.13104652
0.070395909 -0.0889543 0.13104652
0.071025193 -0.0889543 0.13104652
0.071654484 -0.0889543 0.13104652
0.072256871 -0.089032859 0.1311094
0.067149349 -0.089712799 0.13085373
0.067828223 -0.089556038 0.13072763
0.068482541 -0.089477658 0.13066459
0.069137327 -0.089399278 0.13060154
0.069766618 -0.089399278 0.13060154
0.070395909 -0.089399278 0.13060154
0.071025193 -0.089399278 0.13060154
0.071601145 -0.089556038 0.13072763
0.072203062 -0.089634418 0.13079068
0.072831646 -0.089634418 0.13079068
0.073460236 -0.089634418 0.13079068
0.066496201 -0.090235338 0.13047263
0.067149349 -0.090157107 0.13040942
0.067802958 -0.090078905 0.13034621
0.068457045 -0.090000674 0.130283
0.069111593 -0.089922473 0.13021979
0.069740646 -0.089922473 0.13021979
0.070369706 -0.089922473 0.13021979
0.070998751 -0.089922473 0.13021979
0.071601145 -0.090000674 0.130283
0.072203062 -0.090078905 0.13034621
0.072804518 -0.090157107 0.13040942
0.073405497 -0.090235338 0.13047263
0.074033618 -0.090235338 0.13047263
0.065818965 -0.090835541 0.13015521
0.066471405 -0.090757519 0.13009186
0.067124315 -0.090679482 0.13002849
0.067752436 -0.090679482 0.13002849
0.068406053 -0.090601414 0.1299651
0.069060132 -0.090523377 0.12990174
0.069714688 -0.090445325 0.12983835
0.070343509 -0.090445325 0.12983835
0.070972323 -0.090445325 0.12983835
0.071547814 -0.090601414 0.1299651
0.072176166 -0.090601414 0.1299651
0.072777376 -0.090679482 0.13002849
0.07343287 -0.090601414 0.1299651
0.074006014 -0.090757519 0.13009186
0.074633896 -0.090757519 0.13009186
0.065794408 -0.091357261 0.12977494
0.066471405 -0.091201499 0.12964788
0.067099288 -0.091201499 0.12964788
0.067727178 -0.091201499 0.12964788
0.068380557 -0.091123626 0.12958434
0.069008671 -0.091123626 0.12958434
0.069662757 -0.091045737 0.12952079
0.070291109 -0.091045737 0.12952079
0.070945889 -0.090967864 0.12945725
0.071521141 -0.091123626 0.12958434
0.072176166 -0.091045737 0.12952079
0.072777376 -0.091123626 0.12958434
0.073405497 -0.091123626 0.12958434
0.074006014 -0.091201499 0.12964788
0.074633896 -0.091201499 0.12964788
0.065769851 -0.091878608 0.12939501
0.066421822 -0.091800898 0.12933129
0.067049235 -0.091800898 0.12933129
0.067701921 -0.091723174 0.12926759
0.068355061 -0.091645479 0.1292039
0.069008671 -0.09156777 0.1291402
0.069636784 -0.09156777 0.1291402
0.070291109 -0.091490045 0.12907648
0.070919462 -0.091490045 0.12907648
0.071547814 -0.091490045 0.12907648
0.072149262 -0.09156777 0.1291402
0.072750241 -0.091645479 0.1292039
0.073405497 -0.09156777 0.1291402
0.074006014 -0.091645479 0.1292039
0.074633896 -0.091645479 0.1292039
0.065745287 -0.092399657 0.1290154
0.066421822 -0.092244551 0.12888765
0.067074262 -0.09216699 0.12882377
0.067701921 -0.09216699 0.12882377
0.068329573 -0.09216699 0.12882377
0.069008671 -0.092011914 0.12869605
0.069636784 -0.092011914 0.12869605
0.070291109 -0.091934353 0.12863216
0.070919462 -0.091934353 0.12863216
0.071521141 -0.092011914 0.12869605
0.072149262 -0.092011914 0.12869605
0.072750241 -0.092089459 0.12875992
0.073405497 -0.092011914 0.12869605
0.074006014 -0.092089459 0.12875992
0.074633896 -0.092089459 0.12875992
0.065745287 -0.092842981 0.12857208
0.066397026 -0.092765585 0.12850803
0.067049235 -0.092688203 0.128444
0.067701921 -0.092610806 0.12837996
0.068355061 -0.092533439 0.12831593
0.069008671 -0.092456073 0.1282519
0.069636784 -0.092456073 0.1282519
0.070291109 -0.092378676 0.12818785
0.070919462 -0.092378676 0.12818785
0.071574479 -0.092301294 0.12812382
0.072176166 -0.092378676 0.12818785
0.072777376 -0.092456073 0.1282519
0.073405497 -0.092456073 0.1282519
0.074006014 -0.092533439 0.12831593
0.074606061 -0.092610806 0.12837996
0.066397026 -0.093209058 0.12806454
0.067074262 -0.093054622 0.12793614
0.067727178 -0.092977419 0.12787196
0.068431549 -0.092745766 0.12767935
0.069034405 -0.092822984 0.12774354
0.069714688 -0.092668533 0.12761512
0.070369706 -0.09259133 0.12755093
0.070998751 -0.09259133 0.12755093
0.071627811 -0.09259133 0.12755093
0.072203062 -0.092745766 0.12767935
0.072831646 -0.092745766 0.12767935
0.07343287 -0.092822984 0.12774354
0.074006014 -0.092977419 0.12787196
0.067099288 -0.0934214 0.12742797
0.067777701 -0.093267292 0.12729923
0.068431549 -0.093190253 0.12723486
0.069060132 -0.093190253 0.12723486
0.069714688 -0.093113184 0.12717049
0.070369706 -0.09303613 0.12710613
0.071078055 -0.092804968 0.126913
0.071707815 -0.092804968 0.126913
0.072229974 -0.093113184 0.12717049
0.072885916 -0.09303613 0.12710613
0.07343287 -0.093267292 0.12729923
0.074033618 -0.093344361 0.12736361
0.067224428 -0.093480945 0.12666132
0.068005055 -0.09301962 0.12627411
0.068635523 -0.09301962 0.12627411
0.069317438 -0.09286584 0.12614504
0.069922395 -0.092942744 0.12620957
0.070631698 -0.09271206 0.12601596
0.071236648 -0.092788965 0.1260805
0.071841151 -0.09286584 0.12614504
0.07241828 -0.09301962 0.12627411
0.072940193 -0.09332718 0.12653224
0.073514976 -0.093480945 0.12666132
0.074144036 -0.093480945 0.12666132
0.068763003 -0.093081817 0.12550482
0.069446087 -0.09292838 0.1253754
0.070104152 -0.092851654 0.12531072
0.070788883 -0.092698216 0.1251813
0.071395248 -0.092774928 0.125246
0.072027817 -0.092774928 0.125246
0.073130138 -0.093235269 0.12563421
0.069068953 -0.092609778 0.1242798
0.069857769 -0.092150435 0.12389061
0.070493616 -0.092150435 0.12389061
0.071050875 -0.092380106 0.12408519
0.071712442 -0.092303559 0.12402034
0.072534494 -0.091767669 0.12356628
0.073010109 -0.092226982 0.12395546
0.073591448 -0.092380106 0.12408519
0.071116768 -0.09122026 0.12142666
0.071732037 -0.091296494 0.12149186
0.072373264 -0.091296494 0.12149186
0.070706874 -0.090989307 0.12038481
0.071350448 -0.090989307 0.12038481
0.071967825 -0.091065377 0.12045018
0.072611161 -0.091065377 0.12045018
0.073281176 -0.090989307 0.12038481
0.069546036 -0.09106493 0.1196021
0.070216276 -0.090989038 0.11953658
0.07086125 -0.090989038 0.11953658
0.071480274 -0.09106493 0.1196021
0.072151214 -0.090989038 0.11953658
0.072769761 -0.09106493 0.1196021
0.073414512 -0.09106493 0.1196021
0.074086159 -0.090989038 0.11953658
0.069126531 -0.090839282 0.11855495
0.069748126 -0.090915009 0.11862066
0.07042025 -0.090839282 0.11855495
0.07104136 -0.090915009 0.11862066
0.071687981 -0.090915009 0.11862066
0.072308414 -0.090990737 0.11868635
0.073007658 -0.090839282 0.11855495
0.073627844 -0.090915009 0.11862066
0.074247569 -0.090990737 0.11868635
0.069326751 -0.090692177 0.1175707
0.069950223 -0.090767741 0.11763655
0.070598722 -0.090767741 0.11763655
0.071221478 -0.09084329 0.11770241
0.071869738 -0.09084329 0.11770241
0.072491802 -0.090918869 0.11776827
0.073166259 -0.09084329 0.11770241
0.073787846 -0.090918869 0.11776827
0.074435875 -0.090918869 0.11776827
0.069476917 -0.09069851 0.11671583
0.070127055 -0.09069851 0.11671583
0.070777193 -0.09069851 0.11671583
0.071401589 -0.09077391 0.11678185
0.071999565 -0.090924695 0.11691388
0.072622791 -0.09100011 0.11697993
0.073245555 -0.091075495 0.11704594
0.073894516 -0.091075495 0.11704594
0.069025144 -0.090556368 0.11572659
0.069627091 -0.09070684 0.11585897
0.070253365 -0.090782076 0.11592516
0.070879176 -0.090857297 0.11599134
0.071504503 -0.090932548 0.11605754
0.072155342 -0.090932548 0.11605754
0.072727591 -0.091158226 0.11625612
0.073377714 -0.091158226 0.11625612
0.074027851 -0.091158226 0.11625612
0.074677989 -0.091158226 0.11625612
0.069223486 -0.090416893 0.11473471
0.069827311 -0.090567023 0.11486742
0.070455462 -0.090642095 0.11493376
0.071057647 -0.090792209 0.11506648
0.071658894 -0.090942353 0.11519919
0.072285175 -0.09101741 0.11526555
0.072884783 -0.091167539 0.11539826
0.073483452 -0.091317669 0.11553097
0.074134521 -0.091317669 0.11553097
0.07478559 -0.091317669 0.11553097
0.069421835 -0.090280041 0.11374018
0.07002753 -0.090429857 0.11387321
0.070632294 -0.090579659 0.11400625
0.071236119 -0.090729445 0.1141393
0.071839005 -0.090879261 0.11427234
0.072414994 -0.091103956 0.1144719
0.073015779 -0.091253743 0.11460495
0.073642053 -0.091328636 0.11467147
0.07429453 -0.091328636 0.11467147
0.069545805 -0.090370074 0.11294305
0.070202723 -0.090370074 0.11294305
0.070783868 -0.090594262 0.1131431
0.071389101 -0.090743735 0.11327648
0.071941927 -0.091042683 0.11354323
0.072544813 -0.091192141 0.11367661
0.073172972 -0.09126687 0.11374329
0.073800638 -0.091341615 0.11380999
0.074401192 -0.091491088 0.11394337
0.069159031 -0.090014324 0.11174315
0.069744147 -0.09023805 0.11194372
0.070327863 -0.090461731 0.11214426
0.070960701 -0.090536296 0.11221112
0.071516581 -0.090834588 0.11247854
0.072096311 -0.091058284 0.11267908
0.072726563 -0.091132864 0.11274594
0.07330396 -0.091356561 0.11294651
0.073932804 -0.091431141 0.11301337
0.068718463 -0.089811027 0.11067365
0.069281831 -0.090108648 0.11094174
0.069868118 -0.090331852 0.11114277
0.070503056 -0.090406269 0.11120979
0.071061745 -0.09070389 0.11147788
0.07164406 -0.090927079 0.11167893
0.072250687 -0.091075897 0.11181296
0.072830424 -0.091299102 0.11201403
0.073461153 -0.091373518 0.11208105
0.074091405 -0.09144792 0.11214805
0.068249576 -0.089684978 0.10966836
0.068840086 -0.089907676 0.10986991
0.069404624 -0.090204641 0.11013864
0.069992088 -0.090427339 0.11034019
0.070578143 -0.090650052 0.11054173
0.07121332 -0.090724304 0.11060894
0.071797036 -0.090947002 0.11081047
0.072379336 -0.09116973 0.11101204
0.072986215 -0.091318175 0.11114639
0.073618345 -0.091392428 0.11121358
0.068345942 -0.089857832 0.10892981
0.068937384 -0.090080038 0.10913184
0.069551982 -0.090228185 0.10926655
0.070116051 -0.09052448 0.10953596
0.070753336 -0.090598539 0.10960329
0.071364895 -0.090746686 0.10973799
0.071924515 -0.091042981 0.11000741
0.072533719 -0.091191128 0.11014211
0.073167965 -0.091265187 0.11020944
0.068490483 -0.089884207 0.10805489
0.069059014 -0.090179831 0.10832496
0.069674775 -0.09032765 0.10845999
0.070264816 -0.09054935 0.10866253
0.070903495 -0.090623289 0.10873005
0.071541727 -0.090697169 0.10879757
0.072102986 -0.090992808 0.10906763
0.072739564 -0.091066688 0.10913514
0.07337568 -0.091140628 0.10920265
0.074037522 -0.091140628 0.10920265
0.067347817 -0.089765102 0.10704266
0.067943946 -0.089986309 0.10724568
0.068586849 -0.09006004 0.10731336
0.069229282 -0.090133786 0.10738105
0.06984669 -0.090281278 0.10751642
0.070413575 -0.090576246 0.10778713
0.071078695 -0.090576246 0.10778713
0.071693301 -0.090723708 0.10792249
0.072281457 -0.090944946 0.10812555
0.072945409 -0.090944946 0.10812555
0.073583394 -0.091018677 0.1081932
0.074220911 -0.091092438 0.1082609
0.066937387 -0.089427888 0.1058242
0.067513175 -0.089722201 0.10609561
0.068087086 -0.090016484 0.10636698
0.06873139 -0.090090081 0.10643482
0.069350913 -0.09023723 0.10657053
0.069994047 -0.090310797 0.10663836
0.070587136 -0.090531513 0.10684189
0.071228862 -0.090605095 0.10690975
0.071844868 -0.090752259 0.10704544
0.072510928 -0.090752259 0.10704544
0.073099792 -0.09097296 0.10724898
0.073765151 -0.09097296 0.10724898
0.067654915 -0.089755028 0.10521422
0.06827794 -0.08990185 0.10535026
0.068875939 -0.090122074 0.10555428
0.069521189 -0.090195507 0.10562231
0.070141405 -0.090342298 0.10575831
0.070735887 -0.090562537 0.10596237
0.071404055 -0.090562537 0.10596237
0.072046965 -0.09063594 0.10603037
0.072663903 -0.090782762 0.10616638
0.073279902 -0.090929583 0.10630241
0.073946901 -0.090929583 0.10630241
0.067264825 -0.089350402 0.10392182
0.067843899 -0.089643359 0.10419451
0.068444937 -0.089863107 0.10439906
0.069044575 -0.090082839 0.10460359
0.069667138 -0.090229318 0.10473993
0.07031332 -0.090302557 0.10480811
0.070959032 -0.090375811 0.10487629
0.071579248 -0.090522304 0.10501266
0.072223797 -0.090595543 0.10508083
0.072842374 -0.090742037 0.10521717
0.073485747 -0.090815261 0.10528535
0.074154615 -0.090815261 0.10528535
0.067405157 -0.089388192 0.10303549
0.067985624 -0.089680508 0.10330886
0.068635792 -0.089753583 0.10337719
0.069189124 -0.09011896 0.10371891
0.069813095 -0.090265125 0.10385559
0.070509791 -0.09019205 0.10378726
0.071157381 -0.090265125 0.10385559
0.071779475 -0.090411291 0.10399228
0.07240063 -0.090557456 0.10412897
0.073071845 -0.090557456 0.10412897
0.073717318 -0.090630502 0.10419729
0.066444889 -0.088625938 0.10139357
0.066961743 -0.089136332 0.10187313
0.067568876 -0.089355081 0.10207866
0.068198226 -0.089500904 0.10221568
0.068826646 -0.089646727 0.10235269
0.069405943 -0.089938357 0.10262671
0.070056342 -0.090011299 0.10269523
0.070681706 -0.090157107 0.10283226
0.071330935 -0.090230018 0.10290076
0.071979687 -0.090302944 0.10296927
0.072627984 -0.090375856 0.10303777
0.073275812 -0.090448752 0.10310628
0.073897429 -0.090594575 0.10324329
0.066559486 -0.088742286 0.10057011
0.067123823 -0.089106023 0.10091348
0.067732595 -0.089324281 0.10111952
0.06831634 -0.089615256 0.10139421
0.068898216 -0.089906231 0.10166889
0.069550484 -0.089979008 0.10173757
0.070202291 -0.090051726 0.10180625
0.070878185 -0.090051726 0.10180625
0.071529284 -0.090124488 0.10187493
0.07220494 -0.090124488 0.10187493
0.072830088 -0.090269968 0.10201228
0.073479779 -0.09034273 0.10208096
0.074154727 -0.09034273 0.10208096
0.065947428 -0.089005455 0.099882692
0.066582404 -0.089150622 0.10002038
0.067193285 -0.089368358 0.10022688
0.067802764 -0.089586109 0.10043339
0.068434462 -0.089731276 0.10057107
0.069041356 -0.089949012 0.10077761
0.069695033 -0.090021595 0.10084644
0.07034824 -0.090094179 0.1009153
0.071025535 -0.090094179 0.1009153
0.071678042 -0.090166762 0.10098413
0.072305053 -0.09031193 0.10112181
0.072956391 -0.090384498 0.10119063
0.073632762 -0.090384498 0.10119063
0.074334845 -0.09031193 0.10112181
0.065378875 -0.089124799 0.099056259
0.066015482 -0.089269638 0.099194258
0.066651165 -0.089414433 0.099332273
0.067309052 -0.089486867 0.09940128
0.067919701 -0.089704111 0.099608287
0.068552569 -0.089848936 0.099746302
0.069136783 -0.090138614 0.10002233
0.069815487 -0.090138614 0.10002233
0.070469871 -0.090211019 0.10009132
0.071148336 -0.090211019 0.10009132
0.071802013 -0.090283453 0.10016035
0.072430186 -0.090428278 0.10029835
0.073107958 -0.090428278 0.10029835
0.07378573 -0.090428278 0.10029835
0.074463494 -0.090428278 0.10029835
0.065423779 -0.089462519 0.098435685
0.066083543 -0.089534774 0.098504841
0.066697001 -0.089751542 0.098712355
0.067355365 -0.089823768 0.098781526
0.067989863 -0.089968264 0.098919868
0.068623438 -0.090112776 0.099058226
0.069279924 -0.090185016 0.099127382
0.069911852 -0.090329513 0.099265724
0.070591494 -0.090329513 0.099265724
0.071271136 -0.090329513 0.099265724
0.071876399 -0.090546265 0.099473238
0.072555333 -0.090546265 0.099473238
0.073234275 -0.090546265 0.099473238
0.073887713 -0.090618521 0.099542424
0.074566416 -0.090618521 0.099542424
0.064830191 -0.08965674 0.097675756
0.065446235 -0.089872986 0.097883761
0.06610623 -0.089945093 0.097953111
0.066765763 -0.09001717 0.098022446
0.067424826 -0.090089262 0.098091796
0.068060026 -0.090233445 0.098230451
0.068694308 -0.090377584 0.098369122
0.069351494 -0.090449676 0.098438472
0.070032306 -0.090449676 0.098438472
0.070664465 -0.09059386 0.098577142
0.071320251 -0.090665936 0.098646462
0.071975566 -0.090738028 0.098715812
0.072680473 -0.090665936 0.098646462
0.07333532 -0.090738028 0.098715812
0.074015193 -0.090738028 0.098715812
0.074695066 -0.090738028 0.098715812
0.064830191 -0.09013997 0.097192526
0.06549114 -0.090211883 0.097262025
0.066174291 -0.090211883 0.097262025
0.066788681 -0.090427652 0.097470552
0.067471132 -0.090427652 0.097470552
0.068130195 -0.090499565 0.097540051
0.068788789 -0.090571493 0.097609565
0.069423057 -0.090715349 0.097748548
0.070080489 -0.090787247 0.097818047
0.07076177 -0.090787247 0.097818047
0.071418494 -0.09085916 0.097887546
0.072099537 -0.09085916 0.097887546
0.072755553 -0.090931088 0.09795706
0.073461629 -0.09085916 0.097887546
0.074117184 -0.090931088 0.09795706
0.074797988 -0.090931088 0.09795706
0.065536037 -0.090551466 0.096639648
0.066219658 -0.090551466 0.096639648
0.06685745 -0.090694949 0.096778959
0.067494288 -0.090838462 0.0969183
0.068223752 -0.090694949 0.096778959
0.068859667 -0.090838462 0.0969183
0.069518492 -0.090910226 0.096987978
0.070200935 -0.090910226 0.096987978
0.070859075 -0.090981975 0.097057641
0.071541287 -0.090981975 0.097057641
0.072198704 -0.091053739 0.097127318
0.072905719 -0.090981975 0.097057641
0.073587939 -0.090981975 0.097057641
0.074244663 -0.091053739 0.097127318
0.074926637 -0.091053739 0.097127318
0.064985715 -0.090605319 0.095737234
0.065648295 -0.090676889 0.095807076
0.066333093 -0.090676889 0.095807076
0.066949122 -0.090891674 0.096016586
0.067610063 -0.090963259 0.096086398
0.068293914 -0.090963259 0.096086398
0.068977773 -0.090963259 0.096086398
0.069661632 -0.090963259 0.096086398
0.070345484 -0.090963259 0.096086398
0.071005017 -0.091034859 0.096156254
0.07166408 -0.09110643 0.096226066
0.072322682 -0.091178015 0.096295893
0.073030859 -0.09110643 0.096226066
0.073688991 -0.091178015 0.096295893
0.07437215 -0.091178015 0.096295893
0.065760553 -0.090804011 0.094972864
0.066423826 -0.090875447 0.095042869
0.067040801 -0.091089696 0.095252857
0.067748986 -0.091018274 0.095182836
0.068410859 -0.091089696 0.095252857
0.069095887 -0.091089696 0.095252857
0.069780916 -0.091089696 0.095252857
0.070465937 -0.091089696 0.095252857
0.071126647 -0.091161117 0.095322847
0.071811438 -0.091161117 0.095322847
0.072471432 -0.091232553 0.095392853
0.073155992 -0.091232553 0.095392853
0.073840559 -0.091232553 0.095392853
0.074525118 -0.091232553 0.095392853
0.065163456 -0.091004029 0.094207138
0.065827906 -0.091075301 0.094277307
0.066537261 -0.091004029 0.094207138
0.067155398 -0.091217816 0.094417647
0.067841597 -0.091217816 0.094417647
0.06857457 -0.091075301 0.094277307
0.069214001 -0.091217816 0.094417647
0.069947906 -0.091075301 0.094277307
0.070634574 -0.091075301 0.094277307
0.071272597 -0.091217816 0.094417647
0.071934238 -0.091289058 0.094487816
0.072620198 -0.091289058 0.094487816
0.073306166 -0.091289058 0.094487816
0.073992133 -0.091289058 0.094487816
0.065895267 -0.091347545 0.093580768
0.066582635 -0.091347545 0.093580768
0.067270003 -0.091347545 0.093580768
0.067934215 -0.091418669 0.093651101
0.06864474 -0.091347545 0.093580768
0.069379352 -0.091205388 0.09344013
0.07006719 -0.091205388 0.09344013
0.070779122 -0.091134295 0.093369782
0.071442872 -0.091205388 0.09344013
0.072057031 -0.091418669 0.093651101
0.072744168 -0.091418669 0.093651101
0.073431298 -0.091418669 0.093651101
0.074118435 -0.091418669 0.093651101
0.06596262 -0.091620833 0.092883244
0.066673368 -0.091549918 0.092812747
0.067361683 -0.091549918 0.092812747
0.068119451 -0.091337115 0.092601255
0.068808459 -0.091337115 0.092601255
0.069544718 -0.091195285 0.092460245
0.070234194 -0.091195285 0.092460245
0.070947759 -0.091124356 0.092389777
0.071613155 -0.091195285 0.092460245
0.072278067 -0.091266215 0.092530772
0.072967306 -0.091266215 0.092530772
0.073656552 -0.091266215 0.092530772
0.066786803 -0.091682807 0.091972724
0.067499205 -0.091612056 0.091902077
0.068258375 -0.091399774 0.091690093
0.068995565 -0.091258273 0.091548771
0.069733694 -0.091116741 0.091407448
0.070472762 -0.09097521 0.091266125
0.071164578 -0.09097521 0.091266125
0.071832076 -0.091045976 0.091336772
0.072499096 -0.091116741 0.091407448
0.073190451 -0.091116741 0.091407448
0.073881797 -0.091116741 0.091407448
0.066877544 -0.091887981 0.091201887
0.067613803 -0.091746792 0.091060251
0.068397298 -0.0914644 0.090776935
0.069135897 -0.091323212 0.09063527
0.069899052 -0.091111436 0.090422809
0.070663616 -0.090899646 0.090210304
0.071285032 -0.091111436 0.090422809
0.071978025 -0.091111436 0.090422809
0.072671011 -0.091111436 0.090422809
0.073364004 -0.091111436 0.090422809
0.07405699 -0.091111436 0.090422809
0.068559378 -0.0914606 0.089790791
0.069346391 -0.091178879 0.089506805
0.070064411 -0.091108456 0.089435846
0.0707829 -0.091038018 0.089364842
0.071477763 -0.091038018 0.089364842
0.072172627 -0.091038018 0.089364842
0.07286749 -0.091038018 0.089364842
0.073562354 -0.091038018 0.089364842
0.074257217 -0.091038018 0.089364842
0.068675146 -0.091599643 0.088944659
0.069580272 -0.090967268 0.088304237
0.070277013 -0.090967268 0.088304237
0.070973746 -0.090967268 0.088304237
0.071670488 -0.090967268 0.088304237
0.072367229 -0.090967268 0.088304237
0.073088527 -0.090896994 0.088233069
0.073785499 -0.090896994 0.088233069
0.068906695 -0.091389835 0.087740228
0.06990771 -0.090478584 0.086813033
0.070607729 -0.090478584 0.086813033
0.071283884 -0.090548664 0.08688435
0.071911395 -0.09075895 0.087098315
0.072659135 -0.090618744 0.086955667
0.073309556 -0.09075895 0.087098315
0.070258535 -0.089924589 0.085245684
0.070891201 -0.090134367 0.085460156
0.071498595 -0.090414107 0.085746124
0.072128214 -0.090623885 0.085960582
0.072829403 -0.090623885 0.085960582
0.073506027 -0.090693831 0.086032078
0.069786549 -0.089724377 0.084031671
0.070469029 -0.089794159 0.084103331
0.071151048 -0.089863911 0.084174976
0.071713306 -0.090282515 0.084604919
0.072369121 -0.090422049 0.084748223
0.072999679 -0.090631336 0.084963188
0.073702507 -0.090631336 0.084963188
0.070064396 -0.089388296 0.082670689
0.07077308 -0.089388296 0.082670689
0.07143452 -0.089527503 0.082814336
0.072071165 -0.089736298 0.083029792
0.072706394 -0.089945123 0.083245263
0.073388882 -0.090014696 0.083317086
0 0 0 1 0 0 0 1 0 0 0 1 0 0 0 0 0 599 1 0 0
