ply
format ascii 1.0
comment PCL generated
element vertex 507
property float x
property float y
property float z
element camera 1
property float view_px
property float view_py
property float view_pz
property float x_axisx
property float x_axisy
property float x_axisz
property float y_axisx
property float y_axisy
property float y_axisz
property float z_axisx
property float z_axisy
property float z_axisz
property float focal
property float scalex
property float scaley
property float centerx
property float centery
property int viewportx
property int viewporty
property float k1
property float k2
end_header
0.069137327 -0.088509321 0.13149148
0.069792576 -0.088430643 0.13142878
0.070395909 -0.088509321 0.13149148
0.071025193 -0.088509321 0.13149148
0.067853481 -0.089032859 0.1311094
0.068482541 -0.089032859 0.1311094
0.069111593 -0.089032859 0.1311094
0.069740646 -0.089032859 0.1311094
0.070369706 -0.089032859 0.1311094
0.070972323 -0.089111388 0.13117227
0.071574479 -0.089189947 0.13123517
0.072176166 -0.089268491 0.13129804
0.067174368 -0.089634418 0.13079068
0.067802958 -0.089634418 0.13079068
0.068457045 -0.089556038 0.13072763
0.069085866 -0.089556038 0.13072763
0.069740646 -0.089477658 0.13066459
0.070369706 -0.089477658 0.13066459
0.070972323 -0.089556038 0.13072763
0.071574479 -0.089634418 0.13079068
0.072149262 -0.089791179 0.13091677
0.072777376 -0.089791179 0.13091677
0.067149349 -0.090157107 0.13040942
0.067777701 -0.090157107 0.13040942
0.068431549 -0.090078905 0.13034621
0.069060132 -0.090078905 0.13034621
0.069688715 -0.090078905 0.13034621
0.070317306 -0.090078905 0.13034621
0.070945889 -0.090078905 0.13034621
0.071521141 -0.090235338 0.13047263
0.072149262 -0.090235338 0.13047263
0.072723113 -0.090391725 0.13059902
0.073350765 -0.090391725 0.13059902
0.066471405 -0.090757519 0.13009186
0.067099288 -0.090757519 0.13009186
0.067752436 -0.090679482 0.13002849
0.068380557 -0.090679482 0.13002849
0.068982944 -0.090757519 0.13009186
0.069636784 -0.090679482 0.13002849
0.070291109 -0.090601414 0.1299651
0.070919462 -0.090601414 0.1299651
0.071467817 -0.090835541 0.13015521
0.072095469 -0.090835541 0.13015521
0.072723113 -0.090835541 0.13015521
0.073323391 -0.090913609 0.1302186
0.073923208 -0.090991646 0.13028197
0.066446617 -0.091279358 0.12971139
0.067074262 -0.091279358 0.12971139
0.067727178 -0.091201499 0.12964788
0.068329573 -0.091279358 0.12971139
0.068982944 -0.091201499 0.12964788
0.069636784 -0.091123626 0.12958434
0.070264906 -0.091123626 0.12958434
0.070866592 -0.091201499 0.12964788
0.071467817 -0.091279358 0.12971139
0.072122365 -0.091201499 0.12964788
0.072695971 -0.091357261 0.12977494
0.073323391 -0.091357261 0.12977494
0.073923208 -0.091435134 0.12983848
0.074550383 -0.091435134 0.12983848
0.065769851 -0.091878608 0.12939501
0.066421822 -0.091800898 0.12933129
0.067074262 -0.091723174 0.12926759
0.067676648 -0.091800898 0.12933129
0.068304069 -0.091800898 0.12933129
0.068957217 -0.091723174 0.12926759
0.069610827 -0.091645479 0.1292039
0.070238717 -0.091645479 0.1292039
0.070866592 -0.091645479 0.1292039
0.071467817 -0.091723174 0.12926759
0.072068557 -0.091800898 0.12933129
0.072695971 -0.091800898 0.12933129
0.073323391 -0.091800898 0.12933129
0.073950805 -0.091800898 0.12933129
0.074550383 -0.091878608 0.12939501
0.066397026 -0.092322096 0.12895152
0.067049235 -0.092244551 0.12888765
0.067676648 -0.092244551 0.12888765
0.068304069 -0.092244551 0.12888765
0.068957217 -0.09216699 0.12882377
0.069610827 -0.092089459 0.12875992
0.070238717 -0.092089459 0.12875992
0.070866592 -0.092089459 0.12875992
0.071467817 -0.09216699 0.12882377
0.072095469 -0.09216699 0.12882377
0.072695971 -0.092244551 0.12888765
0.073323391 -0.092244551 0.12888765
0.073950805 -0.092244551 0.12888765
0.074550383 -0.092322096 0.12895152
0.066397026 -0.092765585 0.12850803
0.067024209 -0.092765585 0.12850803
0.067676648 -0.092688203 0.128444
0.068329573 -0.092610806 0.12837996
0.068957217 -0.092610806 0.12837996
0.069610827 -0.092533439 0.12831593
0.070238717 -0.092533439 0.12831593
0.070866592 -0.092533439 0.12831593
0.071494475 -0.092533439 0.12831593
0.072068557 -0.092688203 0.128444
0.072723113 -0.092610806 0.12837996
0.073323391 -0.092688203 0.128444
0.073950805 -0.092688203 0.128444
0.074550383 -0.092765585 0.12850803
0.067074262 -0.093054622 0.12793614
0.067701921 -0.093054622 0.12793614
0.068355061 -0.092977419 0.12787196
0.068982944 -0.092977419 0.12787196
0.069636784 -0.092900217 0.12780775
0.070264906 -0.092900217 0.12780775
0.070893019 -0.092900217 0.12780775
0.071547814 -0.092822984 0.12774354
0.072149262 -0.092900217 0.12780775
0.072723113 -0.093054622 0.12793614
0.073378131 -0.092977419 0.12787196
0.073950805 -0.093131855 0.12800035
0.067701921 -0.093498439 0.12749232
0.068431549 -0.093190253 0.12723486
0.069060132 -0.093190253 0.12723486
0.069662757 -0.093267292 0.12729923
0.070291109 -0.093267292 0.12729923
0.070998751 -0.09303613 0.12710613
0.071601145 -0.093113184 0.12717049
0.072229974 -0.093113184 0.12717049
0.072804518 -0.093267292 0.12729923
0.073350765 -0.093498439 0.12749232
0.073978417 -0.093498439 0.12749232
0.067802958 -0.093634725 0.12679039
0.068482541 -0.093480945 0.12666132
0.069111593 -0.093480945 0.12666132
0.069792576 -0.09332718 0.12653224
0.070422105 -0.09332718 0.12653224
0.071078055 -0.093250275 0.12646769
0.071734481 -0.0931734 0.12640318
0.072310671 -0.09332718 0.12653224
0.072831646 -0.093634725 0.12679039
0.07343287 -0.093711615 0.12685493
0.068055585 -0.093311965 0.12569889
0.068635523 -0.093465418 0.12582831
0.069343165 -0.093235269 0.12563421
0.069974326 -0.093235269 0.12563421
0.070631698 -0.093158528 0.12556949
0.071289517 -0.093081817 0.12550482
0.071894489 -0.093158528 0.12556949
0.072472081 -0.093311965 0.12569889
0.072994463 -0.09361887 0.12595771
0.073569715 -0.093772322 0.1260871
0.069626197 -0.09283945 0.12447439
0.070233978 -0.092915997 0.12453926
0.070893683 -0.09283945 0.12447439
0.071474545 -0.092992559 0.12460414
0.072081156 -0.093069106 0.12466897
0.072606586 -0.09337534 0.12492844
0.07019078 -0.09106493 0.1196021
0.07086125 -0.090989038 0.11953658
0.071584128 -0.090761334 0.11933997
0.072229818 -0.090761334 0.11933997
0.072875492 -0.090761334 0.11933997
0.073574513 -0.090609565 0.11920892
0.069722869 -0.090990737 0.11868635
0.070394747 -0.090915009 0.11862066
0.07104136 -0.090915009 0.11862066
0.071662024 -0.090990737 0.11868635
0.072360806 -0.090839282 0.11855495
0.07306052 -0.090687811 0.11842357
0.073707849 -0.090687811 0.11842357
0.069301724 -0.090767741 0.11763655
0.069924966 -0.09084329 0.11770241
0.070598722 -0.090767741 0.11763655
0.071221478 -0.09084329 0.11770241
0.071869738 -0.09084329 0.11770241
0.072518006 -0.09084329 0.11770241
0.073192686 -0.090767741 0.11763655
0.073867843 -0.090692177 0.1175707
0.069552004 -0.090472341 0.11651775
0.070127055 -0.09069851 0.11671583
0.070777193 -0.09069851 0.11671583
0.071401589 -0.09077391 0.11678185
0.072051495 -0.09077391 0.11678185
0.072648995 -0.090924695 0.11691388
0.073271982 -0.09100011 0.11697993
0.073947854 -0.090924695 0.11691388
0.069677144 -0.090556368 0.11572659
0.07027863 -0.09070684 0.11585897
0.070904672 -0.090782076 0.11592516
0.071530238 -0.090857297 0.11599134
0.072155342 -0.090932548 0.11605754
0.072779991 -0.091007754 0.11612374
0.073404156 -0.09108299 0.11618991
0.074054524 -0.09108299 0.11618991
0.07473179 -0.091007754 0.11612374
0.069223486 -0.090416893 0.11473471
0.069827311 -0.090567023 0.11486742
0.070430197 -0.090717167 0.11500014
0.071057647 -0.090792209 0.11506648
0.071658894 -0.090942353 0.11519919
0.072285175 -0.09101741 0.11526555
0.072858579 -0.091242626 0.11546463
0.073509879 -0.091242626 0.11546463
0.074161187 -0.091242626 0.11546463
0.07478559 -0.091317669 0.11553097
0.069347449 -0.090504766 0.11393975
0.069977477 -0.090579659 0.11400625
0.070581771 -0.090729445 0.1141393
0.07121063 -0.090804338 0.11420581
0.071787544 -0.091029063 0.11440539
0.072389022 -0.091178864 0.11453845
0.073015779 -0.091253743 0.11460495
0.073615611 -0.091403559 0.11473799
0.074267857 -0.091403559 0.11473799
0.074920096 -0.091403559 0.11473799
0.06888888 -0.090370074 0.11294305
0.069496214 -0.090519547 0.11307642
0.070127644 -0.090594262 0.1131431
0.070733346 -0.090743735 0.11327648
0.07133811 -0.090893209 0.11340986
0.0719162 -0.091117397 0.11360991
0.072518855 -0.09126687 0.11374329
0.073146768 -0.091341615 0.11380999
0.073747776 -0.091491088 0.11394337
0.074374527 -0.091565818 0.11401004
0.075027704 -0.091565818 0.11401004
0.068987116 -0.090536296 0.11221112
0.069620185 -0.090610877 0.11227798
0.07022775 -0.090760022 0.11241169
0.070834383 -0.090909168 0.1125454
0.071440093 -0.091058284 0.11267908
0.072044849 -0.09120743 0.11281279
0.072648674 -0.091356561 0.11294651
0.07325156 -0.091505706 0.1130802
0.073879942 -0.091580257 0.11314705
0.069085352 -0.09070389 0.11147788
0.069719359 -0.090778291 0.11154489
0.070327863 -0.090927079 0.11167893
0.070960701 -0.091001481 0.11174594
0.071593069 -0.091075897 0.11181296
0.072173499 -0.091299102 0.11201403
0.072778493 -0.09144792 0.11214805
0.07340876 -0.091522306 0.11221506
0.074038535 -0.091596708 0.1122821
0.069208153 -0.090798512 0.11067611
0.069843322 -0.090872765 0.1107433
0.07047803 -0.090947002 0.11081047
0.07108701 -0.091095477 0.11094485
0.071695052 -0.091243953 0.11107922
0.072302148 -0.091392428 0.11121358
0.07290832 -0.091540903 0.11134796
0.073513545 -0.091689393 0.11148232
0.074144274 -0.091763616 0.11154951
0.069404624 -0.090672627 0.10967065
0.070016876 -0.09082076 0.10980535
0.07060317 -0.091042981 0.11000741
0.071238585 -0.091117054 0.11007473
0.071848027 -0.091265187 0.11020944
0.072482258 -0.091339275 0.11027679
0.073064104 -0.091561481 0.11047885
0.073696941 -0.09163557 0.1105462
0.069576539 -0.090623289 0.10873005
0.07019043 -0.090771094 0.10886508
0.070728302 -0.091140628 0.10920265
0.07133963 -0.091288432 0.10933769
0.071924515 -0.091510147 0.10954024
0.07258518 -0.091510147 0.10954024
0.073167965 -0.091731846 0.10974276
0.069723897 -0.090649977 0.10785481
0.070388779 -0.090649977 0.10785481
0.071028642 -0.090723708 0.10792249
0.071592249 -0.091018677 0.1081932
0.072204977 -0.091166154 0.10832858
0.072816752 -0.091313645 0.10846394
0.069375239 -0.090163648 0.10650267
0.069994047 -0.090310797 0.10663836
0.070661515 -0.090310797 0.10663836
0.071228862 -0.090605095 0.10690975
0.071819603 -0.090825826 0.10711327
0.072485432 -0.090825826 0.10711327
0.073074058 -0.091046557 0.10731682
0.068421081 -0.089461386 0.10494219
0.068996392 -0.089755028 0.10521422
0.069569834 -0.090048671 0.10548629
0.070190519 -0.090195507 0.10562231
0.070859857 -0.090195507 0.10562231
0.071429089 -0.090489119 0.10589434
0.072046965 -0.09063594 0.10603037
0.072689399 -0.090709358 0.1060984
0.073946901 -0.090929583 0.10630241
0.068659648 -0.089203909 0.10378546
0.069189124 -0.089643359 0.10419451
0.069813095 -0.089789852 0.10433087
0.070460677 -0.089863107 0.10439906
0.071132585 -0.089863107 0.10439906
0.071779475 -0.089936346 0.10446723
0.072324842 -0.090302557 0.10480811
0.073071845 -0.090082839 0.10460359
0.073562935 -0.090595543 0.10508083
0.068174608 -0.089095876 0.1027621
0.068755075 -0.089388192 0.10303549
0.069333665 -0.089680508 0.10330886
0.069934718 -0.089899749 0.10351388
0.070583478 -0.089972809 0.1035822
0.071256556 -0.089972809 0.1035822
0.071879588 -0.09011896 0.10371891
0.072627984 -0.089899749 0.10351388
0.073301308 -0.089899749 0.10351388
0.073820233 -0.090338215 0.10392395
0.067615651 -0.089209244 0.10194165
0.06822186 -0.089427978 0.10214715
0.068850502 -0.089573801 0.10228418
0.069454126 -0.089792535 0.10248971
0.070104994 -0.089865461 0.10255823
0.070730828 -0.090011299 0.10269523
0.071405314 -0.090011299 0.10269523
0.0720798 -0.090011299 0.10269523
0.072703771 -0.090157107 0.10283226
0.073377796 -0.090157107 0.10283226
0.067054361 -0.089324281 0.10111952
0.067662433 -0.089542508 0.10132553
0.06831634 -0.089615256 0.10139421
0.068922073 -0.089833498 0.10160024
0.06957458 -0.089906231 0.10166889
0.070226617 -0.089979008 0.10173757
0.070878185 -0.090051726 0.10180625
0.07155408 -0.090051726 0.10180625
0.072229974 -0.090051726 0.10180625
0.072880603 -0.090124488 0.10187493
0.073556267 -0.090124488 0.10187493
0.074180469 -0.090269968 0.10201228
0.067100666 -0.089658692 0.10050225
0.067755982 -0.089731276 0.10057107
0.068363585 -0.089949012 0.10077761
0.069041356 -0.089949012 0.10077761
0.069719121 -0.089949012 0.10077761
0.07034824 -0.090094179 0.1009153
0.071025535 -0.090094179 0.1009153
0.071678042 -0.090166762 0.10098413
0.072355106 -0.090166762 0.10098413
0.072981648 -0.09031193 0.10112181
0.07365825 -0.09031193 0.10112181
0.074334845 -0.09031193 0.10112181
0.066513643 -0.089848936 0.099746302
0.067146979 -0.089993775 0.099884316
0.067826152 -0.089993775 0.099884316
0.068481706 -0.09006618 0.099953324
0.069136783 -0.090138614 0.10002233
0.069791399 -0.090211019 0.10009132
0.070469871 -0.090211019 0.10009132
0.071123779 -0.090283453 0.10016035
0.071802013 -0.090283453 0.10016035
0.072430186 -0.090428278 0.10029835
0.073107958 -0.090428278 0.10029835
0.07378573 -0.090428278 0.10029835
0.074463494 -0.090428278 0.10029835
0.066559486 -0.090185016 0.099127382
0.067216434 -0.090257287 0.099196553
0.067896314 -0.090257287 0.099196553
0.068552569 -0.090329513 0.099265724
0.069184497 -0.090474024 0.099404067
0.069911852 -0.090329513 0.099265724
0.070591494 -0.090329513 0.099265724
0.071222015 -0.090474024 0.099404067
0.071876399 -0.090546265 0.099473238
0.072530299 -0.090618521 0.099542424
0.07320901 -0.090618521 0.099542424
0.073887713 -0.090618521 0.099542424
0.074566416 -0.090618521 0.099542424
0.066582404 -0.09059386 0.098577142
0.067239597 -0.090665936 0.098646462
0.067943089 -0.09059386 0.098577142
0.068599813 -0.090665936 0.098646462
0.069279924 -0.090665936 0.098646462
0.069984123 -0.09059386 0.098577142
0.070664465 -0.09059386 0.098577142
0.071320251 -0.090665936 0.098646462
0.071975566 -0.090738028 0.098715812
0.072655439 -0.090738028 0.098715812
0.07333532 -0.090738028 0.098715812
0.073989704 -0.09081009 0.098785147
0.074695066 -0.090738028 0.098715812
0.066628247 -0.090931088 0.09795706
0.067309052 -0.090931088 0.09795706
0.067989863 -0.090931088 0.09795706
0.068694308 -0.09085916 0.097887546
0.069375351 -0.09085916 0.097887546
0.070080489 -0.090787247 0.097818047
0.07076177 -0.090787247 0.097818047
0.071443051 -0.090787247 0.097818047
0.072099537 -0.09085916 0.097887546
0.072755553 -0.090931088 0.09795706
0.073436365 -0.090931088 0.09795706
0.07414268 -0.09085916 0.097887546
0.074797988 -0.090931088 0.09795706
0.066674083 -0.091268986 0.097336307
0.067355365 -0.091268986 0.097336307
0.068060026 -0.091197252 0.097266644
0.068741545 -0.091197252 0.097266644
0.069470771 -0.091053739 0.097127318
0.070176847 -0.090981975 0.097057641
0.070859075 -0.090981975 0.097057641
0.071541287 -0.090981975 0.097057641
0.072198704 -0.091053739 0.097127318
0.072880685 -0.091053739 0.097127318
0.073562674 -0.091053739 0.097127318
0.074270159 -0.090981975 0.097057641
0.074952371 -0.090981975 0.097057641
0.067471132 -0.091392785 0.096505418
0.068176977 -0.091321185 0.096435577
0.068859667 -0.091321185 0.096435577
0.069590062 -0.091178015 0.096295893
0.070273213 -0.091178015 0.096295893
0.070980698 -0.09110643 0.096226066
0.071639523 -0.091178015 0.096295893
0.072322682 -0.091178015 0.096295893
0.073005833 -0.091178015 0.096295893
0.073688991 -0.091178015 0.096295893
0.074397638 -0.09110643 0.096226066
0.068293914 -0.091446817 0.09560284
0.069001392 -0.091375396 0.095532864
0.069685481 -0.091375396 0.095532864
0.070417754 -0.091232553 0.095392853
0.071102321 -0.091232553 0.095392853
0.07178688 -0.091232553 0.095392853
0.072471432 -0.091232553 0.095392853
0.073155992 -0.091232553 0.095392853
0.073840559 -0.091232553 0.095392853
0.06772583 -0.091574088 0.094768465
0.068410859 -0.091574088 0.094768465
0.069119513 -0.091502815 0.094698295
0.069852479 -0.091360331 0.094557986
0.070538208 -0.091360331 0.094557986
0.071248271 -0.091289058 0.094487816
0.071934238 -0.091289058 0.094487816
0.072595403 -0.091360331 0.094557986
0.073281132 -0.091360331 0.094557986
0.073966861 -0.091360331 0.094557986
0.074678101 -0.091289058 0.094487816
0.067911066 -0.091489732 0.093721434
0.068597965 -0.091489732 0.093721434
0.06930849 -0.091418669 0.093651101
0.069995627 -0.091418669 0.093651101
0.070682757 -0.091418669 0.093651101
0.071369894 -0.091418669 0.093651101
0.072057031 -0.091418669 0.093651101
0.072744168 -0.091418669 0.093651101
0.073431298 -0.091418669 0.093651101
0.074118435 -0.091418669 0.093651101
0.068119451 -0.091337115 0.092601255
0.068831846 -0.091266215 0.092530772
0.069544718 -0.091195285 0.092460245
0.070234194 -0.091195285 0.092460245
0.070899576 -0.091266215 0.092530772
0.071613155 -0.091195285 0.092460245
0.072278067 -0.091266215 0.092530772
0.072967306 -0.091266215 0.092530772
0.073656552 -0.091266215 0.092530772
0.074345797 -0.091266215 0.092530772
0.068350993 -0.091116741 0.091407448
0.069089122 -0.09097521 0.091266125
0.069780938 -0.09097521 0.091266125
0.070472762 -0.09097521 0.091266125
0.071164578 -0.09097521 0.091266125
0.071832076 -0.091045976 0.091336772
0.072499096 -0.091116741 0.091407448
0.073215246 -0.091045976 0.091336772
0.073881797 -0.091116741 0.091407448
0.069276229 -0.090899646 0.090210304
0.069993541 -0.090829059 0.090139478
0.070687473 -0.090829059 0.090139478
0.07135731 -0.090899646 0.090210304
0.072026677 -0.090970248 0.090281144
0.072671011 -0.091111436 0.090422809
0.073364004 -0.091111436 0.090422809
0.07405699 -0.091111436 0.090422809
0.069463328 -0.090826735 0.089151859
0.070158899 -0.090826735 0.089151859
0.070854463 -0.090826735 0.089151859
0.071501851 -0.090967596 0.089293852
0.072172627 -0.091038018 0.089364842
0.07286749 -0.091038018 0.089364842
0.073537558 -0.091108456 0.089435846
0.074232183 -0.091108456 0.089435846
0.070418753 -0.090545684 0.087877274
0.071116894 -0.090545684 0.087877274
0.071766853 -0.090686202 0.088019595
0.072415873 -0.090826735 0.088161916
0.073113084 -0.090826735 0.088161916
0.073810287 -0.090826735 0.088161916
0.070725843 -0.090128064 0.086456403
0.071379319 -0.090268269 0.086599052
0.072007753 -0.090478584 0.086813033
0.072659135 -0.090618744 0.086955667
0.073383234 -0.090548664 0.08688435
0.074058227 -0.090618744 0.086955667
0.071009316 -0.089784712 0.085102722
0.071617879 -0.090064436 0.085388675
0.072224572 -0.090344176 0.085674644
0.072878055 -0.090484008 0.085817605
0.073579714 -0.090484008 0.085817605
0.071198292 -0.089724377 0.084031671
0.07180874 -0.090003446 0.08431828
0.072417304 -0.090282515 0.084604919
0.073096983 -0.090352282 0.084676549
0.06951616 -0.088901088 0.082167953
0.070157014 -0.089109898 0.082383409
0.070819855 -0.089249104 0.082527041
0.071481764 -0.089388296 0.082670689
0.072142728 -0.089527503 0.082814336
0.072850943 -0.089527503 0.082814336
0.073510505 -0.089666709 0.082957983
0 0 0 1 0 0 0 1 0 0 0 1 0 0 0 0 0 507 1 0 0
