ply
format ascii 1.0
comment PCL generated
element vertex 523
property float x
property float y
property float z
element camera 1
property float view_px
property float view_py
property float view_pz
property float x_axisx
property float x_axisy
property float x_axisz
property float y_axisx
property float y_axisy
property float y_axisz
property float z_axisx
property float z_axisy
property float z_axisz
property float focal
property float scalex
property float scaley
property float centerx
property float centery
property int viewportx
property int viewporty
property float k1
property float k2
end_header
0.069137327 -0.088509321 0.13149148
0.069766618 -0.088509321 0.13149148
0.070395909 -0.088509321 0.13149148
0.071025193 -0.088509321 0.13149148
0.067802958 -0.089189947 0.13123517
0.068457045 -0.089111388 0.13117227
0.069111593 -0.089032859 0.1311094
0.069740646 -0.089032859 0.1311094
0.070369706 -0.089032859 0.1311094
0.070972323 -0.089111388 0.13117227
0.071601145 -0.089111388 0.13117227
0.072203062 -0.089189947 0.13123517
0.067124315 -0.089791179 0.13091677
0.067777701 -0.089712799 0.13085373
0.068457045 -0.089556038 0.13072763
0.069085866 -0.089556038 0.13072763
0.069714688 -0.089556038 0.13072763
0.070369706 -0.089477658 0.13066459
0.070972323 -0.089556038 0.13072763
0.071547814 -0.089712799 0.13085373
0.072149262 -0.089791179 0.13091677
0.072777376 -0.089791179 0.13091677
0.066471405 -0.090313539 0.13053584
0.067124315 -0.090235338 0.13047263
0.067752436 -0.090235338 0.13047263
0.068431549 -0.090078905 0.13034621
0.069034405 -0.090157107 0.13040942
0.069688715 -0.090078905 0.13034621
0.070343509 -0.090000674 0.130283
0.070945889 -0.090078905 0.13034621
0.071547814 -0.090157107 0.13040942
0.072176166 -0.090157107 0.13040942
0.072777376 -0.090235338 0.13047263
0.073405497 -0.090235338 0.13047263
0.065794408 -0.090913609 0.1302186
0.066421822 -0.090913609 0.1302186
0.067074262 -0.090835541 0.13015521
0.067727178 -0.090757519 0.13009186
0.068380557 -0.090679482 0.13002849
0.069034405 -0.090601414 0.1299651
0.069636784 -0.090679482 0.13002849
0.070291109 -0.090601414 0.1299651
0.070945889 -0.090523377 0.12990174
0.071521141 -0.090679482 0.13002849
0.072149262 -0.090679482 0.13002849
0.072750241 -0.090757519 0.13009186
0.073378131 -0.090757519 0.13009186
0.073978417 -0.090835541 0.13015521
0.065769851 -0.091435134 0.12983848
0.066397026 -0.091435134 0.12983848
0.067049235 -0.091357261 0.12977494
0.067676648 -0.091357261 0.12977494
0.068304069 -0.091357261 0.12977494
0.068982944 -0.091201499 0.12964788
0.069636784 -0.091123626 0.12958434
0.070264906 -0.091123626 0.12958434
0.070893019 -0.091123626 0.12958434
0.071521141 -0.091123626 0.12958434
0.072149262 -0.091123626 0.12958434
0.072750241 -0.091201499 0.12964788
0.073378131 -0.091201499 0.12964788
0.073978417 -0.091279358 0.12971139
0.074606061 -0.091279358 0.12971139
0.065745287 -0.091956347 0.12945871
0.066397026 -0.091878608 0.12939501
0.067024209 -0.091878608 0.12939501
0.067676648 -0.091800898 0.12933129
0.068329573 -0.091723174 0.12926759
0.068957217 -0.091723174 0.12926759
0.069610827 -0.091645479 0.1292039
0.070264906 -0.09156777 0.1291402
0.070893019 -0.09156777 0.1291402
0.071521141 -0.09156777 0.1291402
0.072122365 -0.091645479 0.1292039
0.072723113 -0.091723174 0.12926759
0.073350765 -0.091723174 0.12926759
0.073978417 -0.091723174 0.12926759
0.074578218 -0.091800898 0.12933129
0.06572073 -0.092477202 0.12907927
0.066372231 -0.092399657 0.1290154
0.066999175 -0.092399657 0.1290154
0.067676648 -0.092244551 0.12888765
0.068304069 -0.092244551 0.12888765
0.068957217 -0.09216699 0.12882377
0.069610827 -0.092089459 0.12875992
0.070264906 -0.092011914 0.12869605
0.070893019 -0.092011914 0.12869605
0.071521141 -0.092011914 0.12869605
0.072149262 -0.092011914 0.12869605
0.072750241 -0.092089459 0.12875992
0.073378131 -0.092089459 0.12875992
0.073978417 -0.09216699 0.12882377
0.074578218 -0.092244551 0.12888765
0.066347443 -0.092920363 0.12863611
0.067024209 -0.092765585 0.12850803
0.067651391 -0.092765585 0.12850803
0.068329573 -0.092610806 0.12837996
0.068957217 -0.092610806 0.12837996
0.069636784 -0.092456073 0.1282519
0.070264906 -0.092456073 0.1282519
0.070919462 -0.092378676 0.12818785
0.071521141 -0.092456073 0.1282519
0.072176166 -0.092378676 0.12818785
0.072777376 -0.092456073 0.1282519
0.073378131 -0.092533439 0.12831593
0.074006014 -0.092533439 0.12831593
0.074606061 -0.092610806 0.12837996
0.066372231 -0.093286291 0.12812877
0.066999175 -0.093286291 0.12812877
0.067651391 -0.093209058 0.12806454
0.068329573 -0.093054622 0.12793614
0.068982944 -0.092977419 0.12787196
0.069636784 -0.092900217 0.12780775
0.070291109 -0.092822984 0.12774354
0.070998751 -0.09259133 0.12755093
0.071601145 -0.092668533 0.12761512
0.072203062 -0.092745766 0.12767935
0.072777376 -0.092900217 0.12780775
0.073405497 -0.092900217 0.12780775
0.074006014 -0.092977419 0.12787196
0.067024209 -0.093652546 0.12762107
0.067676648 -0.093575507 0.1275567
0.068380557 -0.093344361 0.12736361
0.069137327 -0.092959076 0.12704174
0.069688715 -0.093190253 0.12723486
0.070343509 -0.093113184 0.12717049
0.07105162 -0.092882037 0.12697738
0.071681149 -0.092882037 0.12697738
0.072283775 -0.092959076 0.12704174
0.072858788 -0.093113184 0.12717049
0.073460236 -0.093190253 0.12723486
0.074033618 -0.093344361 0.12736361
0.067878753 -0.093404055 0.12659676
0.068533532 -0.09332718 0.12653224
0.069214515 -0.0931734 0.12640318
0.069948368 -0.09286584 0.12614504
0.070579298 -0.09286584 0.12614504
0.071236648 -0.092788965 0.1260805
0.071787819 -0.09301962 0.12627411
0.072364479 -0.0931734 0.12640318
0.072913058 -0.093404055 0.12659676
0.07348761 -0.093557835 0.12672584
0.068788499 -0.093005091 0.12544011
0.06942036 -0.093005091 0.12544011
0.070104152 -0.092851654 0.12531072
0.070788883 -0.092698216 0.1251813
0.071395248 -0.092774928 0.125246
0.072001152 -0.092851654 0.12531072
0.072579689 -0.093005091 0.12544011
0.073761299 -0.093235269 0.12563421
0.069247432 -0.092073873 0.12382573
0.070545547 -0.091997325 0.12376086
0.071181864 -0.091997325 0.12376086
0.071659572 -0.092456669 0.12415007
0.072454497 -0.091997325 0.12376086
0.071470052 -0.091606975 0.12259559
0.072003208 -0.091912538 0.12285571
0.071402378 -0.090837181 0.12025408
0.072020225 -0.090913266 0.12031946
0.072637595 -0.090989307 0.12038481
0.073281176 -0.090989307 0.12038481
0.069621816 -0.09083724 0.11940552
0.070292771 -0.090761334 0.11933997
0.070938446 -0.090761334 0.11933997
0.071558163 -0.09083724 0.11940552
0.072151214 -0.090989038 0.11953658
0.072796188 -0.090989038 0.11953658
0.073494509 -0.09083724 0.11940552
0.07413996 -0.09083724 0.11940552
0.069176592 -0.090687811 0.11842357
0.069798648 -0.090763554 0.11848927
0.070445739 -0.090763554 0.11848927
0.071067095 -0.090839282 0.11855495
0.071713954 -0.090839282 0.11855495
0.072334602 -0.090915009 0.11862066
0.073034085 -0.090763554 0.11848927
0.073627844 -0.090915009 0.11862066
0.074274465 -0.090915009 0.11862066
0.070000745 -0.090616614 0.11750482
0.07062421 -0.090692177 0.1175707
0.071272932 -0.090692177 0.1175707
0.071869738 -0.09084329 0.11770241
0.072518006 -0.09084329 0.11770241
0.073139817 -0.090918869 0.11776827
0.073787846 -0.090918869 0.11776827
0.069602057 -0.090321541 0.11638571
0.070228107 -0.090396911 0.11645171
0.070802689 -0.090623111 0.11664979
0.071427315 -0.09069851 0.11671583
0.072051495 -0.09077391 0.11678185
0.072648995 -0.090924695 0.11691388
0.073271982 -0.09100011 0.11697993
0.073947854 -0.090924695 0.11691388
0.069124311 -0.090255469 0.11546184
0.069727205 -0.090405911 0.11559419
0.070329152 -0.090556368 0.11572659
0.070904672 -0.090782076 0.11592516
0.071530238 -0.090857297 0.11599134
0.072155342 -0.090932548 0.11605754
0.072779991 -0.091007754 0.11612374
0.073404156 -0.09108299 0.11618991
0.074054524 -0.09108299 0.11618991
0.074677989 -0.091158226 0.11625612
0.069297872 -0.090191677 0.11453563
0.069902398 -0.090341821 0.11466834
0.070480719 -0.090567023 0.11486742
0.071083143 -0.090717167 0.11500014
0.071684629 -0.090867266 0.11513284
0.072285175 -0.09101741 0.11526555
0.072884783 -0.091167539 0.11539826
0.073509879 -0.091242626 0.11546463
0.074161187 -0.091242626 0.11546463
0.07478559 -0.091317669 0.11553097
0.068839759 -0.090055361 0.1135406
0.069421835 -0.090280041 0.11374018
0.070002504 -0.090504766 0.11393975
0.070632294 -0.090579659 0.11400625
0.071236119 -0.090729445 0.1141393
0.071787544 -0.091029063 0.11440539
0.072389022 -0.091178864 0.11453845
0.073015779 -0.091253743 0.11460495
0.073615611 -0.091403559 0.11473799
0.07429453 -0.091328636 0.11467147
0.068962559 -0.090145871 0.11274299
0.069545805 -0.090370074 0.11294305
0.070177697 -0.090444818 0.11300975
0.070783868 -0.090594262 0.1131431
0.07133811 -0.090893209 0.11340986
0.071967654 -0.090967953 0.11347656
0.072544813 -0.091192141 0.11367661
0.073172972 -0.09126687 0.11374329
0.073747776 -0.091491088 0.11394337
0.074401192 -0.091491088 0.11394337
0.068499535 -0.090014324 0.11174315
0.069060795 -0.090312615 0.11201057
0.069694564 -0.090387166 0.1120774
0.070327863 -0.090461731 0.11214426
0.070935436 -0.090610877 0.11227798
0.071516581 -0.090834588 0.11247854
0.072096311 -0.091058284 0.11267908
0.072700605 -0.09120743 0.11281279
0.073277757 -0.091431141 0.11301337
0.073906377 -0.091505706 0.1130802
0.068548188 -0.090331852 0.11114277
0.069183588 -0.090406269 0.11120979
0.069818534 -0.090480655 0.11127682
0.070427977 -0.090629473 0.11141086
0.071061745 -0.09070389 0.11147788
0.07164406 -0.090927079 0.11167893
0.072250687 -0.091075897 0.11181296
0.072830424 -0.091299102 0.11201403
0.073434956 -0.09144792 0.11214805
0.074091405 -0.09144792 0.11214805
0.068056852 -0.090278864 0.11020581
0.068669811 -0.090427339 0.11034019
0.069281831 -0.090575814 0.11047457
0.069917709 -0.090650052 0.11054173
0.07052809 -0.090798512 0.11067611
0.07116279 -0.090872765 0.1107433
0.071797036 -0.090947002 0.11081047
0.072379336 -0.09116973 0.11101204
0.072986215 -0.091318175 0.11114639
0.073618345 -0.091392428 0.11121358
0.074250005 -0.091466665 0.11128075
0.068840086 -0.090376332 0.10940126
0.06950286 -0.090376332 0.10940126
0.070116051 -0.09052448 0.10953596
0.070728302 -0.090672627 0.10967065
0.07133963 -0.09082076 0.10980535
0.071924515 -0.091042981 0.11000741
0.072533719 -0.091191128 0.11014211
0.073142 -0.091339275 0.11027679
0.073775537 -0.091413334 0.11034414
0.069034688 -0.090253726 0.10839248
0.069674775 -0.09032765 0.10845999
0.070289604 -0.09047547 0.10859503
0.070903495 -0.090623289 0.10873005
0.071516462 -0.090771094 0.10886508
0.072077498 -0.091066688 0.10913514
0.07271383 -0.091140628 0.10920265
0.073349714 -0.091214508 0.10927017
0.074011326 -0.091214508 0.10927017
0.069229282 -0.090133786 0.10738105
0.069871254 -0.090207532 0.10744873
0.070512749 -0.090281278 0.10751642
0.071103722 -0.090502486 0.10771945
0.071693301 -0.090723708 0.10792249
0.072281457 -0.090944946 0.10812555
0.072919682 -0.091018677 0.1081932
0.073557429 -0.091092438 0.1082609
0.068803668 -0.089869335 0.10623127
0.069423892 -0.090016484 0.10636698
0.070067726 -0.090090081 0.10643482
0.070686303 -0.09023723 0.10657053
0.071278915 -0.090457946 0.10677405
0.071895391 -0.090605095 0.10690975
0.072485432 -0.090825826 0.10711327
0.073099792 -0.09097296 0.10724898
0.073765151 -0.09097296 0.10724898
0.06834951 -0.08968161 0.1051462
0.068972304 -0.089828432 0.10528223
0.069618486 -0.08990185 0.10535026
0.070215084 -0.090122074 0.10555428
0.070859857 -0.090195507 0.10562231
0.071479142 -0.090342298 0.10575831
0.072046965 -0.09063594 0.10603037
0.072689399 -0.090709358 0.1060984
0.073331363 -0.090782762 0.10616638
0.073998831 -0.090782762 0.10616638
0.068468794 -0.089789852 0.10433087
0.069092758 -0.089936346 0.10446723
0.06971579 -0.090082839 0.10460359
0.070386998 -0.090082839 0.10460359
0.071033418 -0.090156063 0.10467175
0.071654335 -0.090302557 0.10480811
0.072249055 -0.090522304 0.10501266
0.072893374 -0.090595543 0.10508083
0.073537201 -0.090668797 0.10514902
0.074206538 -0.090668797 0.10514902
0.068588078 -0.089899749 0.10351388
0.069237307 -0.089972809 0.1035822
0.06986174 -0.09011896 0.10371891
0.070509791 -0.09019205 0.10378726
0.071182176 -0.09019205 0.10378726
0.071804494 -0.090338215 0.10392395
0.072476409 -0.090338215 0.10392395
0.073046349 -0.090630502 0.10419729
0.073717318 -0.090630502 0.10419729
0.068056501 -0.089938357 0.10262671
0.068707362 -0.090011299 0.10269523
0.069333665 -0.090157107 0.10283226
0.070007689 -0.090157107 0.10283226
0.070657149 -0.090230018 0.10290076
0.07135573 -0.090157107 0.10283226
0.072004721 -0.090230018 0.10290076
0.072653241 -0.090302944 0.10296927
0.073326796 -0.090302944 0.10296927
0.074000344 -0.090302944 0.10296927
0.068826646 -0.090124488 0.10187493
0.069502302 -0.090124488 0.10187493
0.070177965 -0.090124488 0.10187493
0.070779949 -0.09034273 0.10208096
0.071479701 -0.090269968 0.10201228
0.072154887 -0.090269968 0.10201228
0.072830088 -0.090269968 0.10201228
0.073505282 -0.090269968 0.10201228
0.074180469 -0.090269968 0.10201228
0.074855663 -0.090269968 0.10201228
0.068245478 -0.09031193 0.10112181
0.068922073 -0.09031193 0.10112181
0.069598667 -0.09031193 0.10112181
0.070275269 -0.09031193 0.10112181
0.070951864 -0.09031193 0.10112181
0.071603663 -0.090384498 0.10119063
0.072280027 -0.090384498 0.10119063
0.072956391 -0.090384498 0.10119063
0.073632762 -0.090384498 0.10119063
0.074334845 -0.09031193 0.10112181
0.068363585 -0.090428278 0.10029835
0.069041356 -0.090428278 0.10029835
0.069719121 -0.090428278 0.10029835
0.070372567 -0.090500683 0.10036735
0.071074657 -0.090428278 0.10029835
0.071727633 -0.090500683 0.10036735
0.072430186 -0.090428278 0.10029835
0.073107958 -0.090428278 0.10029835
0.07378573 -0.090428278 0.10029835
0.074437767 -0.090500683 0.10036735
0.06777937 -0.090618521 0.099542424
0.06845808 -0.090618521 0.099542424
0.069136783 -0.090618521 0.099542424
0.069815487 -0.090618521 0.099542424
0.07049419 -0.090618521 0.099542424
0.071172893 -0.090618521 0.099542424
0.071851596 -0.090618521 0.099542424
0.07250528 -0.090690777 0.099611565
0.07320901 -0.090618521 0.099542424
0.073862225 -0.090690777 0.099611565
0.074566416 -0.090618521 0.099542424
0.07524512 -0.090618521 0.099542424
0.067872927 -0.09081009 0.098785147
0.068552569 -0.09081009 0.098785147
0.069232211 -0.09081009 0.098785147
0.06993594 -0.090738028 0.098715812
0.070591494 -0.09081009 0.098785147
0.071295694 -0.090738028 0.098715812
0.071950771 -0.09081009 0.098785147
0.072630413 -0.09081009 0.098785147
0.073259532 -0.090954274 0.098923817
0.073989704 -0.09081009 0.098785147
0.074617878 -0.090954274 0.098923817
0.07529705 -0.090954274 0.098923817
0.067989863 -0.090931088 0.09795706
0.068670683 -0.090931088 0.09795706
0.069375351 -0.09085916 0.097887546
0.070032306 -0.090931088 0.09795706
0.070737444 -0.09085916 0.097887546
0.071418494 -0.09085916 0.097887546
0.072074741 -0.090931088 0.09795706
0.072755553 -0.090931088 0.09795706
0.073436365 -0.090931088 0.09795706
0.074066184 -0.091074929 0.098096073
0.074746527 -0.091074929 0.098096073
0.068859667 -0.090838462 0.0969183
0.069542348 -0.090838462 0.0969183
0.07022503 -0.090838462 0.0969183
0.070883393 -0.090910226 0.096987978
0.071565844 -0.090910226 0.096987978
0.072248295 -0.090910226 0.096987978
0.072905719 -0.090981975 0.097057641
0.073562674 -0.091053739 0.097127318
0.074193664 -0.091197252 0.097266644
0.074875176 -0.091197252 0.097266644
0.069001392 -0.090891674 0.096016586
0.069733202 -0.090748489 0.095876917
0.070369571 -0.090891674 0.096016586
0.071029343 -0.090963259 0.096086398
0.071713202 -0.090963259 0.096086398
0.07234747 -0.09110643 0.096226066
0.073055878 -0.091034859 0.096156254
0.073714249 -0.09110643 0.096226066
0.07437215 -0.091178015 0.096295893
0.068504408 -0.090804011 0.094972864
0.069190376 -0.090804011 0.094972864
0.069876343 -0.090804011 0.094972864
0.070562303 -0.090804011 0.094972864
0.0711753 -0.091018274 0.095182836
0.071835995 -0.091089696 0.095252857
0.072496235 -0.091161117 0.095322847
0.073181026 -0.091161117 0.095322847
0.073865823 -0.091161117 0.095322847
0.074525118 -0.091232553 0.095392853
0.068691514 -0.090719014 0.093926504
0.069332115 -0.090861514 0.094066799
0.070019484 -0.090861514 0.094066799
0.070706852 -0.090861514 0.094066799
0.071369894 -0.090932786 0.094136983
0.072007909 -0.091075301 0.094277307
0.072644986 -0.091217816 0.094417647
0.073381245 -0.091075301 0.094277307
0.074017391 -0.091217816 0.094417647
0.074703589 -0.091217816 0.094417647
0.0681426 -0.090778843 0.093018144
0.068831846 -0.090778843 0.093018144
0.069521092 -0.090778843 0.093018144
0.070210338 -0.090778843 0.093018144
0.070875488 -0.090849921 0.093088448
0.071515851 -0.090992108 0.093229115
0.072155267 -0.091134295 0.093369782
0.07281854 -0.091205388 0.09344013
0.073506378 -0.091205388 0.09344013
0.074194223 -0.091205388 0.09344013
0.068281531 -0.090840638 0.092107788
0.068972178 -0.090840638 0.092107788
0.06968645 -0.090769738 0.092037305
0.070353478 -0.090840638 0.092107788
0.071044125 -0.090840638 0.092107788
0.071686126 -0.090982497 0.092248783
0.072302625 -0.091195285 0.092460245
0.072992101 -0.091195285 0.092460245
0.073681578 -0.091195285 0.092460245
0.074371062 -0.091195285 0.092460245
0.069159284 -0.090762943 0.091054142
0.069875434 -0.090692177 0.090983465
0.070544325 -0.090762943 0.091054142
0.071212761 -0.090833694 0.091124788
0.071856402 -0.09097521 0.091266125
0.072499096 -0.091116741 0.091407448
0.073215246 -0.091045976 0.091336772
0.073881797 -0.091116741 0.091407448
0.074522629 -0.091258273 0.091548771
0.069276229 -0.090899646 0.090210304
0.069993541 -0.090829059 0.090139478
0.070663616 -0.090899646 0.090210304
0.071333215 -0.090970248 0.090281144
0.071978025 -0.091111436 0.090422809
0.072671011 -0.091111436 0.090422809
0.073339209 -0.091182038 0.090493605
0.074006937 -0.09125264 0.090564445
0.069393165 -0.091038018 0.089364842
0.070111655 -0.090967596 0.089293852
0.070806749 -0.090967596 0.089293852
0.071477763 -0.091038018 0.089364842
0.072148301 -0.091108456 0.089435846
0.072842926 -0.091108456 0.089435846
0.073512763 -0.091178879 0.089506805
0.074207157 -0.091178879 0.089506805
0.070418753 -0.090545684 0.087877274
0.071069174 -0.090686202 0.088019595
0.07171867 -0.090826735 0.088161916
0.072391555 -0.090896994 0.088233069
0.073063962 -0.090967268 0.088304237
0.073760696 -0.090967268 0.088304237
0.070607729 -0.090478584 0.086813033
0.071283884 -0.090548664 0.08688435
0.071983665 -0.090548664 0.08688435
0.072659135 -0.090618744 0.086955667
0.073358677 -0.090618744 0.086955667
0.074008636 -0.09075895 0.087098315
0.070281923 -0.089854643 0.085174188
0.07098569 -0.089854643 0.085174188
0.07159403 -0.090134367 0.085460156
0.072200485 -0.090414107 0.085746124
0.072902381 -0.090414107 0.085746124
0.073530592 -0.090623885 0.085960582
0.070492424 -0.089724377 0.084031671
0.071198292 -0.089724377 0.084031671
0.07180874 -0.090003446 0.08431828
0.072417304 -0.090282515 0.084604919
0.073121309 -0.090282515 0.084604919
0.069607839 -0.088622689 0.081880674
0.070203327 -0.088970691 0.082239762
0.070819855 -0.089249104 0.082527041
0.071529008 -0.089249104 0.082527041
0.072166584 -0.089457914 0.082742527
0.07287503 -0.089457914 0.082742527
0.073583476 -0.089457914 0.082742527
0.074218251 -0.089666709 0.082957983
0.071030349 -0.089125633 0.081377745
0.071717985 -0.089195073 0.081449732
0.072429009 -0.089195073 0.081449732
0.073164128 -0.089125633 0.081377745
0.07387539 -0.089125633 0.081377745
0 0 0 1 0 0 0 1 0 0 0 1 0 0 0 0 0 523 1 0 0
