ply
format ascii 1.0
comment PCL generated
element vertex 569
property float x
property float y
property float z
element camera 1
property float view_px
property float view_py
property float view_pz
property float x_axisx
property float x_axisy
property float x_axisz
property float y_axisx
property float y_axisy
property float y_axisz
property float z_axisx
property float z_axisy
property float z_axisz
property float focal
property float scalex
property float scaley
property float centerx
property float centery
property int viewportx
property int viewporty
property float k1
property float k2
end_header
0.069034405 -0.088824168 0.13174236
0.069688715 -0.088745475 0.13167964
0.070291109 -0.088824168 0.13174236
0.070919462 -0.088824168 0.13174236
0.067752436 -0.089347035 0.13136092
0.068380557 -0.089347035 0.13136092
0.069008671 -0.089347035 0.13136092
0.069636784 -0.089347035 0.13136092
0.070238717 -0.089425579 0.1314238
0.070866592 -0.089425579 0.1314238
0.071494475 -0.089425579 0.1314238
0.072122365 -0.089425579 0.1314238
0.067074262 -0.089947909 0.13104284
0.067701921 -0.089947909 0.13104284
0.068355061 -0.089869559 0.13097982
0.069008671 -0.089791179 0.13091677
0.069636784 -0.089791179 0.13091677
0.070238717 -0.089869559 0.13097982
0.070866592 -0.089869559 0.13097982
0.071494475 -0.089869559 0.13097982
0.072095469 -0.089947909 0.13104284
0.072723113 -0.089947909 0.13104284
0.073323391 -0.090026304 0.1311059
0.066421822 -0.090469956 0.13066225
0.067049235 -0.090469956 0.13066225
0.067676648 -0.090469956 0.13066225
0.068329573 -0.090391725 0.13059902
0.068982944 -0.090313539 0.13053584
0.069610827 -0.090313539 0.13053584
0.070238717 -0.090313539 0.13053584
0.070840165 -0.090391725 0.13059902
0.071467817 -0.090391725 0.13059902
0.072095469 -0.090391725 0.13059902
0.072695971 -0.090469956 0.13066225
0.073296025 -0.090548158 0.13072546
0.073923208 -0.090548158 0.13072546
0.066397026 -0.090991646 0.13028197
0.067024209 -0.090991646 0.13028197
0.067676648 -0.090913609 0.1302186
0.068304069 -0.090913609 0.1302186
0.068931475 -0.090913609 0.1302186
0.069558896 -0.090913609 0.1302186
0.070212521 -0.090835541 0.13015521
0.070840165 -0.090835541 0.13015521
0.071441144 -0.090913609 0.1302186
0.072068557 -0.090913609 0.1302186
0.072668836 -0.090991646 0.13028197
0.073296025 -0.090991646 0.13028197
0.073895596 -0.091069698 0.13034534
0.066397026 -0.091435134 0.12983848
0.067024209 -0.091435134 0.12983848
0.067651391 -0.091435134 0.12983848
0.068278573 -0.091435134 0.12983848
0.068931475 -0.091357261 0.12977494
0.069558896 -0.091357261 0.12977494
0.070186317 -0.091357261 0.12977494
0.070813723 -0.091357261 0.12977494
0.071441144 -0.091357261 0.12977494
0.072068557 -0.091357261 0.12977494
0.072668836 -0.091435134 0.12983848
0.073296025 -0.091435134 0.12983848
0.073923208 -0.091435134 0.12983848
0.074494705 -0.091590896 0.12996557
0.066372231 -0.091956347 0.12945871
0.066999175 -0.091956347 0.12945871
0.067626126 -0.091956347 0.12945871
0.068278573 -0.091878608 0.12939501
0.068905748 -0.091878608 0.12939501
0.069532938 -0.091878608 0.12939501
0.070186317 -0.091800898 0.12933129
0.070813723 -0.091800898 0.12933129
0.071441144 -0.091800898 0.12933129
0.072068557 -0.091800898 0.12933129
0.072668836 -0.091878608 0.12939501
0.073296025 -0.091878608 0.12939501
0.073895596 -0.091956347 0.12945871
0.074494705 -0.092034042 0.12952241
0.066347443 -0.092477202 0.12907927
0.066999175 -0.092399657 0.1290154
0.067626126 -0.092399657 0.1290154
0.068253078 -0.092399657 0.1290154
0.068905748 -0.092322096 0.12895152
0.069558896 -0.092244551 0.12888765
0.070186317 -0.092244551 0.12888765
0.070813723 -0.092244551 0.12888765
0.071441144 -0.092244551 0.12888765
0.072068557 -0.092244551 0.12888765
0.072695971 -0.092244551 0.12888765
0.073296025 -0.092322096 0.12895152
0.073923208 -0.092322096 0.12895152
0.07452254 -0.092399657 0.1290154
0.066999175 -0.092842981 0.12857208
0.067651391 -0.092765585 0.12850803
0.068278573 -0.092765585 0.12850803
0.068931475 -0.092688203 0.128444
0.069584869 -0.092610806 0.12837996
0.070212521 -0.092610806 0.12837996
0.070840165 -0.092610806 0.12837996
0.071494475 -0.092533439 0.12831593
0.072095469 -0.092610806 0.12837996
0.072695971 -0.092688203 0.128444
0.073296025 -0.092765585 0.12850803
0.073923208 -0.092765585 0.12850803
0.07452254 -0.092842981 0.12857208
0.066999175 -0.093286291 0.12812877
0.067626126 -0.093286291 0.12812877
0.068278573 -0.093209058 0.12806454
0.068931475 -0.093131855 0.12800035
0.069558896 -0.093131855 0.12800035
0.070238717 -0.092977419 0.12787196
0.070893019 -0.092900217 0.12780775
0.071494475 -0.092977419 0.12787196
0.072095469 -0.093054622 0.12793614
0.072723113 -0.093054622 0.12793614
0.073296025 -0.093209058 0.12806454
0.073923208 -0.093209058 0.12806454
0.067701921 -0.093498439 0.12749232
0.068329573 -0.093498439 0.12749232
0.068982944 -0.0934214 0.12742797
0.069610827 -0.0934214 0.12742797
0.070264906 -0.093344361 0.12736361
0.070972323 -0.093113184 0.12717049
0.071574479 -0.093190253 0.12723486
0.072149262 -0.093344361 0.12736361
0.072723113 -0.093498439 0.12749232
0.073323391 -0.093575507 0.1275567
0.068005055 -0.09301962 0.12627411
0.068559036 -0.093250275 0.12646769
0.069214515 -0.0931734 0.12640318
0.069948368 -0.09286584 0.12614504
0.070579298 -0.09286584 0.12614504
0.07121022 -0.09286584 0.12614504
0.071814477 -0.092942744 0.12620957
0.072310671 -0.09332718 0.12653224
0.072885916 -0.093480945 0.12666132
0.073460236 -0.093634725 0.12679039
0.069446087 -0.09292838 0.1253754
0.070078187 -0.09292838 0.1253754
0.070710286 -0.09292838 0.1253754
0.071342386 -0.09292838 0.1253754
0.071921147 -0.093081817 0.12550482
0.073569715 -0.093772322 0.1260871
0.070675373 -0.091614544 0.12343656
0.071234263 -0.091844201 0.12363113
0.072135366 -0.091078669 0.1229825
0.072854504 -0.090848982 0.12278788
0.070320919 -0.091225013 0.12227044
0.071012907 -0.091072246 0.12214038
0.071679637 -0.090995863 0.12207535
0.072373264 -0.090843081 0.12194528
0.073014498 -0.090843081 0.12194528
0.070501029 -0.09114404 0.12136146
0.071194664 -0.090991601 0.12123106
0.07181064 -0.091067806 0.12129626
0.072505429 -0.090915382 0.12116589
0.073227838 -0.090686694 0.12097028
0.073897846 -0.090610474 0.12090509
0.070758335 -0.090837181 0.12025408
0.071402378 -0.090837181 0.12025408
0.072020225 -0.090913266 0.12031946
0.072716892 -0.09076114 0.12018874
0.073361173 -0.09076114 0.12018874
0.074005455 -0.09076114 0.12018874
0.070216276 -0.090989038 0.11953658
0.07086125 -0.090989038 0.11953658
0.071480274 -0.09106493 0.1196021
0.072125018 -0.09106493 0.1196021
0.072769761 -0.09106493 0.1196021
0.073414512 -0.09106493 0.1196021
0.074086159 -0.090989038 0.11953658
0.074785404 -0.09083724 0.11940552
0.069748126 -0.090915009 0.11862066
0.070394747 -0.090915009 0.11862066
0.071015634 -0.090990737 0.11868635
0.071662024 -0.090990737 0.11868635
0.072282217 -0.091066465 0.11875202
0.072928362 -0.091066465 0.11875202
0.073574513 -0.091066465 0.11875202
0.074220672 -0.091066465 0.11875202
0.074893944 -0.090990737 0.11868635
0.069950223 -0.090767741 0.11763655
0.070598722 -0.090767741 0.11763655
0.071195744 -0.090918869 0.11776827
0.071817815 -0.090994418 0.11783411
0.072413206 -0.091145545 0.11796583
0.07306052 -0.091145545 0.11796583
0.073681176 -0.091221109 0.11803171
0.074328266 -0.091221109 0.11803171
0.074975349 -0.091221109 0.11803171
0.069526978 -0.090547711 0.11658378
0.07015232 -0.090623111 0.11664979
0.070777193 -0.09069851 0.11671583
0.071350127 -0.090924695 0.11691388
0.071973592 -0.09100011 0.11697993
0.072544202 -0.091226295 0.11717799
0.073166259 -0.09130168 0.11724402
0.073814519 -0.09130168 0.11724402
0.074435875 -0.091377094 0.11731005
0.075083897 -0.091377094 0.11731005
0.069149107 -0.090180218 0.11539564
0.069727205 -0.090405911 0.11559419
0.070354417 -0.090481147 0.1156604
0.070904672 -0.090782076 0.11592516
0.071504503 -0.090932548 0.11605754
0.072103426 -0.09108299 0.11618991
0.072701395 -0.091233462 0.11632229
0.073271982 -0.09145917 0.11652087
0.073894516 -0.091534376 0.11658706
0.074516572 -0.091609612 0.11665326
0.075165294 -0.091609612 0.11665326
0.069322661 -0.090116635 0.11446927
0.069902398 -0.090341821 0.11466834
0.070480719 -0.090567023 0.11486742
0.071083143 -0.090717167 0.11500014
0.071658894 -0.090942353 0.11519919
0.072207272 -0.091242626 0.11546463
0.07280618 -0.091392756 0.11559734
0.073404156 -0.09154287 0.11573003
0.074027851 -0.091617942 0.1157964
0.074677989 -0.091617942 0.1157964
0.069471426 -0.09013024 0.11360712
0.07002753 -0.090429857 0.11387321
0.070632294 -0.090579659 0.11400625
0.071236119 -0.090729445 0.1141393
0.071761817 -0.091103956 0.1144719
0.072363064 -0.091253743 0.11460495
0.072937183 -0.091478452 0.11480451
0.073509879 -0.091703162 0.11500409
0.074134521 -0.09177804 0.1150706
0.074758686 -0.091852963 0.11513713
0.068450883 -0.089697465 0.11234286
0.069011673 -0.089996397 0.11260961
0.069620185 -0.090145871 0.11274299
0.070177697 -0.090444818 0.11300975
0.070758604 -0.090669006 0.1132098
0.071389101 -0.090743735 0.11327648
0.0719162 -0.091117397 0.11360991
0.072518855 -0.09126687 0.11374329
0.073094368 -0.091491088 0.11394337
0.07366848 -0.091715276 0.11414342
0.07429453 -0.091790006 0.1142101
0.068523854 -0.089939758 0.11167631
0.069109917 -0.090163469 0.11187686
0.069719359 -0.090312615 0.11201057
0.070302837 -0.090536296 0.11221112
0.070935436 -0.090610877 0.11227798
0.071491078 -0.090909168 0.1125454
0.072070576 -0.091132864 0.11274594
0.072622709 -0.091431141 0.11301337
0.073225372 -0.091580257 0.11314705
0.07382708 -0.091729403 0.11328076
0.074454524 -0.091803983 0.11334762
0.068032756 -0.089885443 0.11074068
0.06859684 -0.090183049 0.11100873
0.06923271 -0.090257466 0.11107577
0.069818534 -0.090480655 0.11127682
0.070427977 -0.090629473 0.11141086
0.071036488 -0.090778291 0.11154489
0.071618564 -0.091001481 0.11174594
0.072199225 -0.0912247 0.11194701
0.072778493 -0.09144792 0.11214805
0.073382556 -0.091596708 0.1122821
0.073959239 -0.091819927 0.11248314
0.074587859 -0.091894343 0.11255017
0.067538381 -0.089833438 0.10980272
0.068105035 -0.090130374 0.11007145
0.068742782 -0.090204641 0.11013864
0.069355503 -0.090353101 0.11027302
0.069917709 -0.090650052 0.11054173
0.070578143 -0.090650052 0.11054173
0.07116279 -0.090872765 0.1107433
0.071746044 -0.091095477 0.11094485
0.072353609 -0.091243953 0.11107922
0.072934285 -0.091466665 0.11128075
0.073565945 -0.091540903 0.11134796
0.074144274 -0.091763616 0.11154951
0.067681521 -0.089857832 0.10892981
0.068273671 -0.090080038 0.10913184
0.068888739 -0.090228185 0.10926655
0.06950286 -0.090376332 0.10940126
0.070091262 -0.090598539 0.10960329
0.070678249 -0.09082076 0.10980535
0.071314365 -0.090894833 0.1098727
0.071899027 -0.091117054 0.11007473
0.072507992 -0.091265187 0.11020944
0.073142 -0.091339275 0.11027679
0.073723137 -0.091561481 0.11047885
0.067848518 -0.089810312 0.10798739
0.068418212 -0.090105921 0.10825744
0.069034688 -0.090253726 0.10839248
0.06969934 -0.090253726 0.10839248
0.070264816 -0.09054935 0.10866253
0.070878476 -0.090697169 0.10879757
0.071516462 -0.090771094 0.10886508
0.072077498 -0.091066688 0.10913514
0.072688103 -0.091214508 0.10927017
0.073323749 -0.091288432 0.10933769
0.073958926 -0.091362327 0.1094052
0.068586849 -0.09006004 0.10731336
0.069229282 -0.090133786 0.10738105
0.06984669 -0.090281278 0.10751642
0.070487961 -0.090355009 0.10758407
0.071078695 -0.090576246 0.10778713
0.071693301 -0.090723708 0.10792249
0.072255969 -0.091018677 0.1081932
0.072893947 -0.091092438 0.1082609
0.073505498 -0.091239914 0.10839626
0.067560419 -0.089575052 0.10595991
0.068182513 -0.089722201 0.10609561
0.068755485 -0.090016484 0.10636698
0.069399558 -0.090090081 0.10643482
0.070043169 -0.090163648 0.10650267
0.070661515 -0.090310797 0.10663836
0.071278915 -0.090457946 0.10677405
0.071895391 -0.090605095 0.10690975
0.072485432 -0.090825826 0.10711327
0.073739178 -0.091046557 0.10731682
0.067702159 -0.089608222 0.10507821
0.068325654 -0.089755028 0.10521422
0.068948209 -0.08990185 0.10535026
0.069545515 -0.090122074 0.10555428
0.070215084 -0.090122074 0.10555428
0.070835069 -0.09026891 0.1056903
0.071429089 -0.090489119 0.10589434
0.072046965 -0.09063594 0.10603037
0.072663903 -0.090782762 0.10616638
0.073946901 -0.090929583 0.10630241
0.067843899 -0.089643359 0.10419451
0.068468794 -0.089789852 0.10433087
0.069092758 -0.089936346 0.10446723
0.06971579 -0.090082839 0.10460359
0.070362441 -0.090156063 0.10467175
0.071008623 -0.090229318 0.10473993
0.071629301 -0.090375811 0.10487629
0.072223797 -0.090595543 0.10508083
0.072893374 -0.090595543 0.10508083
0.073511474 -0.090742037 0.10521717
0.074180581 -0.090742037 0.10521717
0.067985624 -0.089680508 0.10330886
0.068611935 -0.089826673 0.10344554
0.069237307 -0.089972809 0.1035822
0.06986174 -0.09011896 0.10371891
0.070509791 -0.09019205 0.10378726
0.071182176 -0.09019205 0.10378726
0.071804494 -0.090338215 0.10392395
0.072451152 -0.090411291 0.10399228
0.073071845 -0.090557456 0.10412897
0.073717318 -0.090630502 0.10419729
0.066845968 -0.089500904 0.10221568
0.067475319 -0.089646727 0.10235269
0.068150982 -0.089646727 0.10235269
0.068755075 -0.089865461 0.10255823
0.069381848 -0.090011299 0.10269523
0.070007689 -0.090157107 0.10283226
0.070681706 -0.090157107 0.10283226
0.071306139 -0.090302944 0.10296927
0.071979687 -0.090302944 0.10296927
0.072627984 -0.090375856 0.10303777
0.073275812 -0.090448752 0.10310628
0.07394889 -0.090448752 0.10310628
0.066938587 -0.089688003 0.10146289
0.067568876 -0.089833498 0.10160024
0.06822186 -0.089906231 0.10166889
0.068874359 -0.089979008 0.10173757
0.069502302 -0.090124488 0.10187493
0.070177965 -0.090124488 0.10187493
0.070804507 -0.090269968 0.10201228
0.071479701 -0.090269968 0.10201228
0.072129861 -0.09034273 0.10208096
0.072779559 -0.090415463 0.10214961
0.073454283 -0.090415463 0.10214961
0.074129 -0.090415463 0.10214961
0.066376127 -0.08980386 0.10063994
0.067008048 -0.089949012 0.10077761
0.067685813 -0.089949012 0.10077761
0.068339966 -0.090021595 0.10084644
0.068969786 -0.090166762 0.10098413
0.06964685 -0.090166762 0.10098413
0.070275269 -0.09031193 0.10112181
0.070927307 -0.090384498 0.10119063
0.071578868 -0.090457097 0.10125948
0.072254993 -0.090457097 0.10125948
0.072931126 -0.090457097 0.10125948
0.073581763 -0.090529665 0.10132831
0.074283384 -0.090457097 0.10125948
0.066444889 -0.09006618 0.099953324
0.067100666 -0.090138614 0.10002233
0.06777937 -0.090138614 0.10002233
0.068434462 -0.090211019 0.10009132
0.06908907 -0.090283453 0.10016035
0.069719121 -0.090428278 0.10029835
0.070396893 -0.090428278 0.10029835
0.071074657 -0.090428278 0.10029835
0.071727633 -0.090500683 0.10036735
0.072405167 -0.090500683 0.10036735
0.073057435 -0.090573102 0.10043637
0.073709242 -0.090645522 0.10050537
0.074386306 -0.090645522 0.10050537
0.066467807 -0.090474024 0.099404067
0.067146979 -0.090474024 0.099404067
0.067826152 -0.090474024 0.099404067
0.068505324 -0.090474024 0.099404067
0.069136783 -0.090618521 0.099542424
0.069815487 -0.090618521 0.099542424
0.07049419 -0.090618521 0.099542424
0.071172893 -0.090618521 0.099542424
0.071826808 -0.090690777 0.099611565
0.072530299 -0.090618521 0.099542424
0.073183753 -0.090690777 0.099611565
0.073862225 -0.090690777 0.099611565
0.07454069 -0.090690777 0.099611565
0.065879375 -0.090665936 0.098646462
0.066536561 -0.090738028 0.098715812
0.067216434 -0.090738028 0.098715812
0.067919701 -0.090665936 0.098646462
0.068576187 -0.090738028 0.098715812
0.06925606 -0.090738028 0.098715812
0.06993594 -0.090738028 0.098715812
0.070615813 -0.090738028 0.098715812
0.071295694 -0.090738028 0.098715812
0.071950771 -0.09081009 0.098785147
0.072630413 -0.09081009 0.098785147
0.073310055 -0.09081009 0.098785147
0.073989704 -0.09081009 0.098785147
0.074669339 -0.09081009 0.098785147
0.065902054 -0.091074929 0.098096073
0.066559486 -0.091146842 0.098165557
0.067262746 -0.091074929 0.098096073
0.067943089 -0.091074929 0.098096073
0.068670683 -0.090931088 0.09795706
0.069351494 -0.090931088 0.09795706
0.070056401 -0.09085916 0.097887546
0.070737444 -0.09085916 0.097887546
0.071418494 -0.09085916 0.097887546
0.07202515 -0.091074929 0.098096073
0.072755553 -0.090931088 0.09795706
0.073436365 -0.090931088 0.09795706
0.074117184 -0.090931088 0.09795706
0.074797988 -0.090931088 0.09795706
0.066015482 -0.091197252 0.097266644
0.066674083 -0.091268986 0.097336307
0.067378514 -0.091197252 0.097266644
0.068060026 -0.091197252 0.097266644
0.068741545 -0.091197252 0.097266644
0.069470771 -0.091053739 0.097127318
0.070176847 -0.090981975 0.097057641
0.070859075 -0.090981975 0.097057641
0.071541287 -0.090981975 0.097057641
0.072198704 -0.091053739 0.097127318
0.072880685 -0.091053739 0.097127318
0.073562674 -0.091053739 0.097127318
0.074244663 -0.091053739 0.097127318
0.066811606 -0.091321185 0.096435577
0.06756375 -0.09110643 0.096226066
0.068223752 -0.091178015 0.096295893
0.068906911 -0.091178015 0.096295893
0.069613919 -0.09110643 0.096226066
0.070321389 -0.091034859 0.096156254
0.071005017 -0.091034859 0.096156254
0.071688637 -0.091034859 0.096156254
0.07234747 -0.09110643 0.096226066
0.073030859 -0.09110643 0.096226066
0.073714249 -0.09110643 0.096226066
0.074397638 -0.09110643 0.096226066
0.066265024 -0.091375396 0.095532864
0.066926204 -0.091446817 0.09560284
0.067633212 -0.091375396 0.095532864
0.068317302 -0.091375396 0.095532864
0.069048643 -0.091232553 0.095392853
0.069757059 -0.091161117 0.095322847
0.07044185 -0.091161117 0.095322847
0.071126647 -0.091161117 0.095322847
0.071811438 -0.091161117 0.095322847
0.072496235 -0.091161117 0.095322847
0.073181026 -0.091161117 0.095322847
0.073840559 -0.091232553 0.095392853
0.074525118 -0.091232553 0.095392853
0.067795292 -0.091360331 0.094557986
0.068504408 -0.091289058 0.094487816
0.069190376 -0.091289058 0.094487816
0.069900192 -0.091217816 0.094417647
0.070586391 -0.091217816 0.094417647
0.071272597 -0.091217816 0.094417647
0.071934238 -0.091289058 0.094487816
0.072620198 -0.091289058 0.094487816
0.073306166 -0.091289058 0.094487816
0.073966861 -0.091360331 0.094557986
0.067247085 -0.091418669 0.093651101
0.067934215 -0.091418669 0.093651101
0.06864474 -0.091347545 0.093580768
0.069332115 -0.091347545 0.093580768
0.070019484 -0.091347545 0.093580768
0.070755027 -0.091205388 0.09344013
0.071467198 -0.091134295 0.093369782
0.072081596 -0.091347545 0.093580768
0.072768964 -0.091347545 0.093580768
0.073456332 -0.091347545 0.093580768
0.074118435 -0.091418669 0.093651101
0.067453362 -0.091266215 0.092530772
0.068165764 -0.091195285 0.092460245
0.068878621 -0.091124356 0.092389777
0.069568336 -0.091124356 0.092389777
0.070305765 -0.090982497 0.092248783
0.070995942 -0.090982497 0.092248783
0.071613155 -0.091195285 0.092460245
0.072302625 -0.091195285 0.092460245
0.072992101 -0.091195285 0.092460245
0.073656552 -0.091266215 0.092530772
0.07432054 -0.091337115 0.092601255
0.067613803 -0.091258273 0.091548771
0.068350993 -0.091116741 0.091407448
0.069089122 -0.09097521 0.091266125
0.069780938 -0.09097521 0.091266125
0.070520476 -0.090833694 0.091124788
0.071164578 -0.09097521 0.091266125
0.071856402 -0.09097521 0.091266125
0.072499096 -0.091116741 0.091407448
0.073190451 -0.091116741 0.091407448
0.073831744 -0.091258273 0.091548771
0.074497372 -0.091329008 0.091619417
0.068513073 -0.091111436 0.090422809
0.069276229 -0.090899646 0.090210304
0.069969922 -0.090899646 0.090210304
0.070663616 -0.090899646 0.090210304
0.071333215 -0.090970248 0.090281144
0.072026677 -0.090970248 0.090281144
0.072671011 -0.091111436 0.090422809
0.073364004 -0.091111436 0.090422809
0.074006937 -0.09125264 0.090564445
0.074699461 -0.09125264 0.090564445
0.069416553 -0.090967596 0.089293852
0.070111655 -0.090967596 0.089293852
0.070806749 -0.090967596 0.089293852
0.071550034 -0.090826735 0.089151859
0.072196953 -0.090967596 0.089293852
0.07286749 -0.091038018 0.089364842
0.073537558 -0.091108456 0.089435846
0.074232183 -0.091108456 0.089435846
0.070418753 -0.090545684 0.087877274
0.071116894 -0.090545684 0.087877274
0.071766853 -0.090686202 0.088019595
0.072415873 -0.090826735 0.088161916
0.073088527 -0.090896994 0.088233069
0.073760696 -0.090967268 0.088304237
0.070024654 -0.090128064 0.086456403
0.070725843 -0.090128064 0.086456403
0.071379319 -0.090268269 0.086599052
0.072007753 -0.090478584 0.086813033
0.072683454 -0.090548664 0.08688435
0.073358677 -0.090618744 0.086955667
0.074058227 -0.090618744 0.086955667
0.070281923 -0.089854643 0.085174188
0.07098569 -0.089854643 0.085174188
0.07159403 -0.090134367 0.085460156
0.072224572 -0.090344176 0.085674644
0.0729267 -0.090344176 0.085674644
0.073530592 -0.090623885 0.085960582
0.070539191 -0.089584857 0.083888367
0.071174666 -0.089794159 0.084103331
0.071856454 -0.089863911 0.084174976
0.072417304 -0.090282515 0.084604919
0.073121309 -0.090282515 0.084604919
0.069584914 -0.088692307 0.081952497
0.070226476 -0.088901088 0.082167953
0.070866637 -0.089109898 0.082383409
0.071552627 -0.089179501 0.082455248
0.072166584 -0.089457914 0.082742527
0.072850943 -0.089527503 0.082814336
0.073583476 -0.089457914 0.082742527
0 0 0 1 0 0 0 1 0 0 0 1 0 0 0 0 0 569 1 0 0
