ply
format ascii 1.0
comment PCL generated
element vertex 547
property float x
property float y
property float z
element camera 1
property float view_px
property float view_py
property float view_pz
property float x_axisx
property float x_axisy
property float x_axisz
property float y_axisx
property float y_axisy
property float y_axisz
property float z_axisx
property float z_axisy
property float z_axisz
property float focal
property float scalex
property float scaley
property float centerx
property float centery
property int viewportx
property int viewporty
property float k1
property float k2
end_header
0.069137327 -0.088509321 0.13149148
0.069766618 -0.088509321 0.13149148
0.070369706 -0.088588044 0.13155422
0.070998751 -0.088588044 0.13155422
0.067828223 -0.089111388 0.13117227
0.068457045 -0.089111388 0.13117227
0.069085866 -0.089111388 0.13117227
0.069714688 -0.089111388 0.13117227
0.070369706 -0.089032859 0.1311094
0.070972323 -0.089111388 0.13117227
0.071574479 -0.089189947 0.13123517
0.072149262 -0.089347035 0.13136092
0.067149349 -0.089712799 0.13085373
0.067802958 -0.089634418 0.13079068
0.068457045 -0.089556038 0.13072763
0.069085866 -0.089556038 0.13072763
0.069714688 -0.089556038 0.13072763
0.070343509 -0.089556038 0.13072763
0.070945889 -0.089634418 0.13079068
0.071521141 -0.089791179 0.13091677
0.072122365 -0.089869559 0.13097982
0.072723113 -0.089947909 0.13104284
0.066496201 -0.090235338 0.13047263
0.067149349 -0.090157107 0.13040942
0.067752436 -0.090235338 0.13047263
0.068406053 -0.090157107 0.13040942
0.069060132 -0.090078905 0.13034621
0.069688715 -0.090078905 0.13034621
0.070291109 -0.090157107 0.13040942
0.070919462 -0.090157107 0.13040942
0.071494475 -0.090313539 0.13053584
0.072095469 -0.090391725 0.13059902
0.072668836 -0.090548158 0.13072546
0.073268652 -0.090626389 0.13078867
0.066471405 -0.090757519 0.13009186
0.067099288 -0.090757519 0.13009186
0.067752436 -0.090679482 0.13002849
0.068380557 -0.090679482 0.13002849
0.068982944 -0.090757519 0.13009186
0.069636784 -0.090679482 0.13002849
0.070264906 -0.090679482 0.13002849
0.070893019 -0.090679482 0.13002849
0.071441144 -0.090913609 0.1302186
0.072068557 -0.090913609 0.1302186
0.072641701 -0.091069698 0.13034534
0.073241286 -0.091147751 0.13040872
0.073840387 -0.091225803 0.13047211
0.065794408 -0.091357261 0.12977494
0.066421822 -0.091357261 0.12977494
0.067074262 -0.091279358 0.12971139
0.067701921 -0.091279358 0.12971139
0.068355061 -0.091201499 0.12964788
0.068982944 -0.091201499 0.12964788
0.069610827 -0.091201499 0.12964788
0.070238717 -0.091201499 0.12964788
0.070840165 -0.091279358 0.12971139
0.071441144 -0.091357261 0.12977494
0.072041661 -0.091435134 0.12983848
0.072614565 -0.091590896 0.12996557
0.073213905 -0.091668785 0.13002911
0.07381279 -0.091746658 0.13009265
0.074411184 -0.091824561 0.1301562
0.065769851 -0.091878608 0.12939501
0.066421822 -0.091800898 0.12933129
0.067049235 -0.091800898 0.12933129
0.067676648 -0.091800898 0.12933129
0.068304069 -0.091800898 0.12933129
0.068931475 -0.091800898 0.12933129
0.069584869 -0.091723174 0.12926759
0.070212521 -0.091723174 0.12926759
0.070813723 -0.091800898 0.12933129
0.071414478 -0.091878608 0.12939501
0.072014757 -0.091956347 0.12945871
0.072614565 -0.092034042 0.12952241
0.073213905 -0.092111781 0.12958613
0.07381279 -0.092189491 0.12964983
0.074411184 -0.092267215 0.12971355
0.065769851 -0.092322096 0.12895152
0.066397026 -0.092322096 0.12895152
0.067049235 -0.092244551 0.12888765
0.067676648 -0.092244551 0.12888765
0.068278573 -0.092322096 0.12895152
0.068957217 -0.09216699 0.12882377
0.069584869 -0.09216699 0.12882377
0.070212521 -0.09216699 0.12882377
0.070840165 -0.09216699 0.12882377
0.071441144 -0.092244551 0.12888765
0.072014757 -0.092399657 0.1290154
0.07258743 -0.092554763 0.12914315
0.073241286 -0.092477202 0.12907927
0.073840387 -0.092554763 0.12914315
0.074411184 -0.092709869 0.1292709
0.066397026 -0.092765585 0.12850803
0.067024209 -0.092765585 0.12850803
0.067676648 -0.092688203 0.128444
0.068278573 -0.092765585 0.12850803
0.068957217 -0.092610806 0.12837996
0.069584869 -0.092610806 0.12837996
0.070212521 -0.092610806 0.12837996
0.070840165 -0.092610806 0.12837996
0.071441144 -0.092688203 0.128444
0.072014757 -0.092842981 0.12857208
0.072614565 -0.092920363 0.12863611
0.073241286 -0.092920363 0.12863611
0.073840387 -0.09299776 0.12870017
0.074439026 -0.093075126 0.1287642
0.067049235 -0.093131855 0.12800035
0.067676648 -0.093131855 0.12800035
0.068329573 -0.093054622 0.12793614
0.068957217 -0.093054622 0.12793614
0.069610827 -0.092977419 0.12787196
0.070238717 -0.092977419 0.12787196
0.070866592 -0.092977419 0.12787196
0.071467817 -0.093054622 0.12793614
0.072068557 -0.093131855 0.12800035
0.072668836 -0.093209058 0.12806454
0.073241286 -0.093363509 0.12819296
0.073840387 -0.093440741 0.12825717
0.067049235 -0.093575507 0.1275567
0.067701921 -0.093498439 0.12749232
0.068329573 -0.093498439 0.12749232
0.068982944 -0.0934214 0.12742797
0.069610827 -0.0934214 0.12742797
0.070238717 -0.0934214 0.12742797
0.070840165 -0.093498439 0.12749232
0.071467817 -0.093498439 0.12749232
0.072068557 -0.093575507 0.1275567
0.072641701 -0.093729615 0.12768544
0.073241286 -0.093806654 0.1277498
0.067828223 -0.093557835 0.12672584
0.068482541 -0.093480945 0.12666132
0.069137327 -0.093404055 0.12659676
0.069818549 -0.093250275 0.12646769
0.070474498 -0.0931734 0.12640318
0.071078055 -0.093250275 0.12646769
0.071681149 -0.09332718 0.12653224
0.072256871 -0.093480945 0.12666132
0.072831646 -0.093634725 0.12679039
0.073378131 -0.093865395 0.126984
0.068661012 -0.093388706 0.12576361
0.069343165 -0.093235269 0.12563421
0.069974326 -0.093235269 0.12563421
0.070605494 -0.093235269 0.12563421
0.07121022 -0.093311965 0.12569889
0.071814477 -0.093388706 0.12576361
0.072445177 -0.093388706 0.12576361
0.072967328 -0.093695566 0.1260224
0.073569715 -0.093772322 0.1260871
0.068257675 -0.093145669 0.12473385
0.069626197 -0.09283945 0.12447439
0.070208006 -0.092992559 0.12460414
0.070815086 -0.093069106 0.12466897
0.071421683 -0.093145669 0.12473385
0.07224115 -0.092609778 0.1242798
0.071339063 -0.091988921 0.12292074
0.072241105 -0.091677606 0.12181784
0.071454301 -0.091140836 0.11966763
0.072098814 -0.091140836 0.11966763
0.072743326 -0.091140836 0.11966763
0.073387839 -0.091140836 0.11966763
0.069722869 -0.090990737 0.11868635
0.070369251 -0.090990737 0.11868635
0.071015634 -0.090990737 0.11868635
0.071636058 -0.091066465 0.11875202
0.072256014 -0.091142192 0.11881775
0.072875492 -0.091217905 0.11888342
0.07354784 -0.091142192 0.11881775
0.074166864 -0.091217905 0.11888342
0.069924966 -0.09084329 0.11770241
0.070573226 -0.09084329 0.11770241
0.071195744 -0.090918869 0.11776827
0.071817815 -0.090994418 0.11783411
0.072413206 -0.091145545 0.11796583
0.073113389 -0.090994418 0.11783411
0.073707849 -0.091145545 0.11796583
0.07435517 -0.091145545 0.11796583
0.069727205 -0.089944541 0.11605556
0.070253365 -0.090321541 0.11638571
0.070777193 -0.09069851 0.11671583
0.071427315 -0.09069851 0.11671583
0.072051495 -0.09077391 0.11678185
0.072596595 -0.091075495 0.11704594
0.073245555 -0.091075495 0.11704594
0.073894516 -0.091075495 0.11704594
0.069248281 -0.089879289 0.11513087
0.069802284 -0.090180218 0.11539564
0.070404939 -0.090330675 0.11552802
0.071006656 -0.090481147 0.1156604
0.071581706 -0.09070684 0.11585897
0.072155342 -0.090932548 0.11605754
0.072753794 -0.09108299 0.11618991
0.073404156 -0.09108299 0.11618991
0.074027851 -0.091158226 0.11625612
0.069322661 -0.090116635 0.11446927
0.069927417 -0.090266749 0.114602
0.070531249 -0.090416893 0.11473471
0.071108639 -0.090642095 0.11493376
0.071710356 -0.090792209 0.11506648
0.072311133 -0.090942353 0.11519919
0.072884783 -0.091167539 0.11539826
0.073483452 -0.091317669 0.11553097
0.074134521 -0.091317669 0.11553097
0.069471426 -0.09013024 0.11360712
0.07010261 -0.090205148 0.11367366
0.070657551 -0.090504766 0.11393975
0.071261622 -0.090654537 0.11407277
0.071864739 -0.090804338 0.11420581
0.072414994 -0.091103956 0.1144719
0.073041968 -0.091178864 0.11453845
0.073642053 -0.091328636 0.11467147
0.07429453 -0.091328636 0.11467147
0.069036238 -0.089921653 0.11254291
0.069620185 -0.090145871 0.11274299
0.070202723 -0.090370074 0.11294305
0.070809126 -0.090519547 0.11307642
0.071389101 -0.090743735 0.11327648
0.071993388 -0.090893209 0.11340986
0.072570786 -0.091117397 0.11360991
0.073172972 -0.09126687 0.11374329
0.07382708 -0.09126687 0.11374329
0.074454524 -0.091341615 0.11380999
0.068548188 -0.089865178 0.11160944
0.069109917 -0.090163469 0.11187686
0.069719359 -0.090312615 0.11201057
0.070352897 -0.090387166 0.1120774
0.070960701 -0.090536296 0.11221112
0.071516581 -0.090834588 0.11247854
0.072122037 -0.090983734 0.11261223
0.072726563 -0.091132864 0.11274594
0.07330396 -0.091356561 0.11294651
0.073932804 -0.091431141 0.11301337
0.068129122 -0.089587837 0.1104726
0.06859684 -0.090183049 0.11100873
0.06923271 -0.090257466 0.11107577
0.069843322 -0.090406269 0.11120979
0.07047803 -0.090480655 0.11127682
0.071036488 -0.090778291 0.11154489
0.07164406 -0.090927079 0.11167893
0.072250687 -0.091075897 0.11181296
0.072830424 -0.091299102 0.11201403
0.073461153 -0.091373518 0.11208105
0.074064977 -0.091522306 0.11221506
0.068201393 -0.089833438 0.10980272
0.068742782 -0.090204641 0.11013864
0.069355503 -0.090353101 0.11027302
0.069942497 -0.090575814 0.11047457
0.070578143 -0.090650052 0.11054173
0.071188062 -0.090798512 0.11067611
0.071797036 -0.090947002 0.11081047
0.072379336 -0.09116973 0.11101204
0.072986215 -0.091318175 0.11114639
0.073618345 -0.091392428 0.11121358
0.074250005 -0.091466665 0.11128075
0.068297759 -0.090005979 0.10906452
0.068913057 -0.090154126 0.10919921
0.06950286 -0.090376332 0.10940126
0.070116051 -0.09052448 0.10953596
0.070728302 -0.090672627 0.10967065
0.07133963 -0.09082076 0.10980535
0.071924515 -0.091042981 0.11000741
0.072533719 -0.091191128 0.11014211
0.073167965 -0.091265187 0.11020944
0.073801734 -0.091339275 0.11027679
0.068538666 -0.089736387 0.10791987
0.069059014 -0.090179831 0.10832496
0.069674775 -0.09032765 0.10845999
0.070289604 -0.09047547 0.10859503
0.070903495 -0.090623289 0.10873005
0.071516462 -0.090771094 0.10886508
0.072077498 -0.091066688 0.10913514
0.072739564 -0.091066688 0.10913514
0.07337568 -0.091140628 0.10920265
0.068683207 -0.089765102 0.10704266
0.069277935 -0.089986309 0.10724568
0.069871254 -0.090207532 0.10744873
0.070487961 -0.090355009 0.10758407
0.071078695 -0.090576246 0.10778713
0.071693301 -0.090723708 0.10792249
0.072255969 -0.091018677 0.1081932
0.072893947 -0.091092438 0.1082609
0.073531464 -0.091166154 0.10832858
0.067843899 -0.088692129 0.10514574
0.06834951 -0.089207157 0.10562065
0.068851843 -0.089722201 0.10609561
0.069423892 -0.090016484 0.10636698
0.070018604 -0.09023723 0.10657053
0.070661515 -0.090310797 0.10663836
0.071253896 -0.090531513 0.10684189
0.071870133 -0.090678662 0.10697758
0.072485432 -0.090825826 0.10711327
0.073099792 -0.09097296 0.10724898
0.073765151 -0.09097296 0.10724898
0.067264825 -0.088874117 0.1043981
0.067891143 -0.089020938 0.10453409
0.068444937 -0.089387983 0.10487418
0.068996392 -0.089755028 0.10521422
0.069569834 -0.090048671 0.10548629
0.070190519 -0.090195507 0.10562231
0.070835069 -0.09026891 0.1056903
0.071429089 -0.090489119 0.10589434
0.072072223 -0.090562537 0.10596237
0.072689399 -0.090709358 0.1060984
0.073331363 -0.090782762 0.10616638
0.067264825 -0.089350402 0.10392182
0.067914762 -0.089423642 0.10398999
0.068468794 -0.089789852 0.10433087
0.069092758 -0.089936346 0.10446723
0.06971579 -0.090082839 0.10460359
0.070337877 -0.090229318 0.10473993
0.070983827 -0.090302557 0.10480811
0.071629301 -0.090375811 0.10487629
0.072249055 -0.090522304 0.10501266
0.072893374 -0.090595543 0.10508083
0.073511474 -0.090742037 0.10521717
0.06728822 -0.089753583 0.10337719
0.067962006 -0.089753583 0.10337719
0.068611935 -0.089826673 0.10344554
0.069237307 -0.089972809 0.1035822
0.06986174 -0.09011896 0.10371891
0.070509791 -0.09019205 0.10378726
0.071157381 -0.090265125 0.10385559
0.071804494 -0.090338215 0.10392395
0.072451152 -0.090411291 0.10399228
0.073122837 -0.090411291 0.10399228
0.073743045 -0.090557456 0.10412897
0.066683896 -0.090011299 0.10269523
0.067358382 -0.090011299 0.10269523
0.068032876 -0.090011299 0.10269523
0.068659648 -0.090157107 0.10283226
0.069333665 -0.090157107 0.10283226
0.070007689 -0.090157107 0.10283226
0.070657149 -0.090230018 0.10290076
0.071330935 -0.090230018 0.10290076
0.071979687 -0.090302944 0.10296927
0.072653241 -0.090302944 0.10296927
0.073326796 -0.090302944 0.10296927
0.073974617 -0.090375856 0.10303777
0.066055246 -0.09034273 0.10208096
0.066730201 -0.09034273 0.10208096
0.067405157 -0.09034273 0.10208096
0.068103746 -0.090269968 0.10201228
0.068778932 -0.090269968 0.10201228
0.069454126 -0.090269968 0.10201228
0.07012932 -0.090269968 0.10201228
0.070853621 -0.090124488 0.10187493
0.071529284 -0.090124488 0.10187493
0.072154887 -0.090269968 0.10201228
0.072830088 -0.090269968 0.10201228
0.073505282 -0.090269968 0.10201228
0.074180469 -0.090269968 0.10201228
0.066124007 -0.090602249 0.10139717
0.066799663 -0.090602249 0.10139717
0.067498714 -0.090529665 0.10132831
0.068198226 -0.090457097 0.10125948
0.068874359 -0.090457097 0.10125948
0.069550484 -0.090457097 0.10125948
0.070226617 -0.090457097 0.10125948
0.070951864 -0.09031193 0.10112181
0.071628459 -0.09031193 0.10112181
0.072280027 -0.090384498 0.10119063
0.072956391 -0.090384498 0.10119063
0.073632762 -0.090384498 0.10119063
0.074309118 -0.090384498 0.10119063
0.065516405 -0.090862751 0.10071237
0.066192769 -0.090862751 0.10071237
0.066892281 -0.090790361 0.10064338
0.067568876 -0.090790361 0.10064338
0.068292722 -0.090645522 0.10050537
0.068993635 -0.090573102 0.10043637
0.069670938 -0.090573102 0.10043637
0.070372567 -0.090500683 0.10036735
0.0710501 -0.090500683 0.10036735
0.071727633 -0.090500683 0.10036735
0.072405167 -0.090500683 0.10036735
0.0730827 -0.090500683 0.10036735
0.073734738 -0.090573102 0.10043637
0.074412033 -0.090573102 0.10043637
0.065584458 -0.091124281 0.10002661
0.066261522 -0.091124281 0.10002661
0.066961743 -0.091052026 0.099957451
0.067662433 -0.09097977 0.099888265
0.068339966 -0.09097977 0.099888265
0.069041356 -0.090907529 0.099819094
0.069767304 -0.090763032 0.099680766
0.070469871 -0.090690777 0.099611565
0.071172893 -0.090618521 0.099542424
0.071826808 -0.090690777 0.099611565
0.07250528 -0.090690777 0.099611565
0.073183753 -0.090690777 0.099611565
0.073862225 -0.090690777 0.099611565
0.07454069 -0.090690777 0.099611565
0.06628444 -0.091530949 0.099478528
0.067008048 -0.09138678 0.099339843
0.067685813 -0.09138678 0.099339843
0.068410829 -0.091242626 0.099201173
0.069136783 -0.091098443 0.099062502
0.069839582 -0.091026351 0.098993152
0.070591494 -0.09081009 0.098785147
0.071271136 -0.09081009 0.098785147
0.071901187 -0.090954274 0.098923817
0.07258036 -0.090954274 0.098923817
0.073259532 -0.090954274 0.098923817
0.073938712 -0.090954274 0.098923817
0.074617878 -0.090954274 0.098923817
0.065652512 -0.091866031 0.098860592
0.066330284 -0.091866031 0.098860592
0.067077518 -0.091650277 0.098652065
0.06777937 -0.091578364 0.098582581
0.068481706 -0.091506436 0.098513067
0.069232211 -0.091290668 0.09830457
0.069960035 -0.091146842 0.098165557
0.070664465 -0.091074929 0.098096073
0.071344808 -0.091074929 0.098096073
0.07202515 -0.091074929 0.098096073
0.072705492 -0.091074929 0.098096073
0.073385842 -0.091074929 0.098096073
0.074066184 -0.091074929 0.098096073
0.074746527 -0.091074929 0.098096073
0.065765947 -0.091986507 0.098032996
0.066467807 -0.091914758 0.097963333
0.067193285 -0.091771245 0.097823992
0.067896314 -0.091699526 0.097754315
0.068623438 -0.091556013 0.097614989
0.069351494 -0.0914125 0.097475648
0.070056401 -0.091340736 0.09740597
0.070786089 -0.091197252 0.097266644
0.071467601 -0.091197252 0.097266644
0.07214912 -0.091197252 0.097266644
0.072805606 -0.091268986 0.097336307
0.073512152 -0.091197252 0.097266644
0.074168175 -0.091268986 0.097336307
0.074849449 -0.091268986 0.097336307
0.065992802 -0.091750711 0.096854568
0.066674083 -0.091750711 0.096854568
0.067378514 -0.091679156 0.096784741
0.068106808 -0.091535971 0.096645087
0.068788789 -0.091535971 0.096645087
0.069494635 -0.09146437 0.096575245
0.07022503 -0.091321185 0.096435577
0.070907719 -0.091321185 0.096435577
0.071590409 -0.091321185 0.096435577
0.072248295 -0.091392785 0.096505418
0.072955772 -0.091321185 0.096435577
0.073638462 -0.091321185 0.096435577
0.074295655 -0.091392785 0.096505418
0.067586899 -0.091518253 0.095672861
0.068270527 -0.091518253 0.095672861
0.068954147 -0.091518253 0.095672861
0.069661632 -0.091446817 0.09560284
0.070345484 -0.091446817 0.09560284
0.071053669 -0.091375396 0.095532864
0.071713202 -0.091446817 0.09560284
0.072372258 -0.091518253 0.095672861
0.073080912 -0.091446817 0.09560284
0.073739506 -0.091518253 0.095672861
0.074423134 -0.091518253 0.095672861
0.067017883 -0.091645345 0.094838619
0.06772583 -0.091574088 0.094768465
0.068410859 -0.091574088 0.094768465
0.069095887 -0.091574088 0.094768465
0.069804773 -0.091502815 0.094698295
0.070538208 -0.091360331 0.094557986
0.071223944 -0.091360331 0.094557986
0.071860559 -0.091502815 0.094698295
0.072545819 -0.091502815 0.094698295
0.073231079 -0.091502815 0.094698295
0.073891081 -0.091574088 0.094768465
0.07457611 -0.091574088 0.094768465
0.067155398 -0.091703027 0.093932435
0.067841597 -0.091703027 0.093932435
0.06857457 -0.091560841 0.093791768
0.069284871 -0.091489732 0.093721434
0.06997177 -0.091489732 0.093721434
0.070658669 -0.091489732 0.093721434
0.071345575 -0.091489732 0.093721434
0.072007909 -0.091560841 0.093791768
0.072694577 -0.091560841 0.093791768
0.073381245 -0.091560841 0.093791768
0.074067913 -0.091560841 0.093791768
0.067338765 -0.091620833 0.092883244
0.068026833 -0.091620833 0.092883244
0.068761684 -0.091478974 0.092742249
0.069521092 -0.091266215 0.092530772
0.070234194 -0.091195285 0.092460245
0.070899576 -0.091266215 0.092530772
0.071588822 -0.091266215 0.092530772
0.072204389 -0.091478974 0.092742249
0.072942518 -0.091337115 0.092601255
0.073581465 -0.091478974 0.092742249
0.0741437 -0.091833591 0.093094721
0.067545041 -0.091470525 0.091760755
0.068281531 -0.091329008 0.091619417
0.068995565 -0.091258273 0.091548771
0.069733694 -0.091116741 0.091407448
0.070425048 -0.091116741 0.091407448
0.071116395 -0.091116741 0.091407448
0.07180775 -0.091116741 0.091407448
0.072425425 -0.091329008 0.091619417
0.073116072 -0.091329008 0.091619417
0.073781684 -0.091399774 0.091690093
0.068443611 -0.091323212 0.09063527
0.069182672 -0.091182038 0.090493605
0.069899052 -0.091111436 0.090422809
0.070592038 -0.091111436 0.090422809
0.071285032 -0.091111436 0.090422809
0.071953699 -0.091182038 0.090493605
0.072621897 -0.09125264 0.090564445
0.073314413 -0.09125264 0.090564445
0.073981911 -0.091323212 0.09063527
0.069369778 -0.091108456 0.089435846
0.070088036 -0.091038018 0.089364842
0.0707829 -0.091038018 0.089364842
0.071501851 -0.090967596 0.089293852
0.072148301 -0.091108456 0.089435846
0.072818369 -0.091178879 0.089506805
0.073512763 -0.091178879 0.089506805
0.069556884 -0.091037527 0.088375375
0.070371501 -0.090686202 0.088019595
0.071069174 -0.090686202 0.088019595
0.071694583 -0.090896994 0.088233069
0.072391555 -0.090896994 0.088233069
0.073088527 -0.090896994 0.088233069
0.073686317 -0.091178045 0.088517696
0.069884323 -0.090548664 0.08688435
0.070631355 -0.090408474 0.086741701
0.071307741 -0.090478584 0.086813033
0.071959578 -0.090618744 0.086955667
0.072610483 -0.09075895 0.087098315
0.073284999 -0.090829059 0.087169647
0.070258535 -0.089924589 0.085245684
0.07091482 -0.090064436 0.085388675
0.071570165 -0.090204298 0.085531667
0.072176397 -0.090484008 0.085817605
0.072829403 -0.090623885 0.085960582
0.07348147 -0.090763748 0.086103573
0.070562586 -0.089515075 0.083816707
0.071174666 -0.089794159 0.084103331
0.071784876 -0.090073213 0.084389955
0.072393216 -0.090352282 0.084676549
0.073072657 -0.090422049 0.084748223
0.06953907 -0.088831514 0.08209613
0.070157014 -0.089109898 0.082383409
0.070843242 -0.089179501 0.082455248
0.071458139 -0.089457914 0.082742527
0.071999587 -0.089945123 0.083245263
0.072754577 -0.089805916 0.08310163
0.073510505 -0.089666709 0.082957983
0 0 0 1 0 0 0 1 0 0 0 1 0 0 0 0 0 547 1 0 0
