ply
format ascii 1.0
comment PCL generated
element vertex 578
property float x
property float y
property float z
element camera 1
property float view_px
property float view_py
property float view_pz
property float x_axisx
property float x_axisy
property float x_axisz
property float y_axisx
property float y_axisy
property float y_axisz
property float z_axisx
property float z_axisy
property float z_axisz
property float focal
property float scalex
property float scaley
property float centerx
property float centery
property int viewportx
property int viewporty
property float k1
property float k2
end_header
0.069060132 -0.088745475 0.13167964
0.069688715 -0.088745475 0.13167964
0.070291109 -0.088824168 0.13174236
0.070919462 -0.088824168 0.13174236
0.067752436 -0.089347035 0.13136092
0.068406053 -0.089268491 0.13129804
0.069034405 -0.089268491 0.13129804
0.069662757 -0.089268491 0.13129804
0.070264906 -0.089347035 0.13136092
0.070893019 -0.089347035 0.13136092
0.071494475 -0.089425579 0.1314238
0.072122365 -0.089425579 0.1314238
0.067099288 -0.089869559 0.13097982
0.067727178 -0.089869559 0.13097982
0.068355061 -0.089869559 0.13097982
0.069008671 -0.089791179 0.13091677
0.069636784 -0.089791179 0.13091677
0.070264906 -0.089791179 0.13091677
0.070866592 -0.089869559 0.13097982
0.071467817 -0.089947909 0.13104284
0.072068557 -0.090026304 0.1311059
0.072668836 -0.090104669 0.13116893
0.066421822 -0.090469956 0.13066225
0.067074262 -0.090391725 0.13059902
0.067701921 -0.090391725 0.13059902
0.068329573 -0.090391725 0.13059902
0.068957217 -0.090391725 0.13059902
0.069584869 -0.090391725 0.13059902
0.070238717 -0.090313539 0.13053584
0.070866592 -0.090313539 0.13053584
0.071441144 -0.090469956 0.13066225
0.072068557 -0.090469956 0.13066225
0.072641701 -0.090626389 0.13078867
0.073241286 -0.09070459 0.13085188
0.066421822 -0.090913609 0.1302186
0.067049235 -0.090913609 0.1302186
0.067701921 -0.090835541 0.13015521
0.068329573 -0.090835541 0.13015521
0.068957217 -0.090835541 0.13015521
0.069584869 -0.090835541 0.13015521
0.070212521 -0.090835541 0.13015521
0.070840165 -0.090835541 0.13015521
0.071441144 -0.090913609 0.1302186
0.072041661 -0.090991646 0.13028197
0.072614565 -0.091147751 0.13040872
0.073241286 -0.091147751 0.13040872
0.07381279 -0.09130384 0.13053548
0.065769851 -0.091435134 0.12983848
0.066397026 -0.091435134 0.12983848
0.067049235 -0.091357261 0.12977494
0.067651391 -0.091435134 0.12983848
0.068304069 -0.091357261 0.12977494
0.068931475 -0.091357261 0.12977494
0.069558896 -0.091357261 0.12977494
0.070186317 -0.091357261 0.12977494
0.070813723 -0.091357261 0.12977494
0.071414478 -0.091435134 0.12983848
0.072014757 -0.091513023 0.12990203
0.07258743 -0.091668785 0.13002911
0.073213905 -0.091668785 0.13002911
0.07381279 -0.091746658 0.13009265
0.074411184 -0.091824561 0.1301562
0.065745287 -0.091956347 0.12945871
0.066397026 -0.091878608 0.12939501
0.067024209 -0.091878608 0.12939501
0.067651391 -0.091878608 0.12939501
0.068278573 -0.091878608 0.12939501
0.068905748 -0.091878608 0.12939501
0.069532938 -0.091878608 0.12939501
0.070160121 -0.091878608 0.12939501
0.070787296 -0.091878608 0.12939501
0.071414478 -0.091878608 0.12939501
0.07198786 -0.092034042 0.12952241
0.07258743 -0.092111781 0.12958613
0.073186539 -0.092189491 0.12964983
0.07381279 -0.092189491 0.12964983
0.074411184 -0.092267215 0.12971355
0.066372231 -0.092399657 0.1290154
0.067024209 -0.092322096 0.12895152
0.067626126 -0.092399657 0.1290154
0.068253078 -0.092399657 0.1290154
0.068931475 -0.092244551 0.12888765
0.069532938 -0.092322096 0.12895152
0.070160121 -0.092322096 0.12895152
0.070787296 -0.092322096 0.12895152
0.071414478 -0.092322096 0.12895152
0.072014757 -0.092399657 0.1290154
0.072614565 -0.092477202 0.12907927
0.073213905 -0.092554763 0.12914315
0.073840387 -0.092554763 0.12914315
0.074411184 -0.092709869 0.1292709
0.066372231 -0.092842981 0.12857208
0.067024209 -0.092765585 0.12850803
0.067651391 -0.092765585 0.12850803
0.068304069 -0.092688203 0.128444
0.068931475 -0.092688203 0.128444
0.069558896 -0.092688203 0.128444
0.070186317 -0.092688203 0.128444
0.070813723 -0.092688203 0.128444
0.071441144 -0.092688203 0.128444
0.072014757 -0.092842981 0.12857208
0.072641701 -0.092842981 0.12857208
0.073241286 -0.092920363 0.12863611
0.073840387 -0.09299776 0.12870017
0.074439026 -0.093075126 0.1287642
0.066999175 -0.093286291 0.12812877
0.067651391 -0.093209058 0.12806454
0.068329573 -0.093054622 0.12793614
0.068957217 -0.093054622 0.12793614
0.069584869 -0.093054622 0.12793614
0.070238717 -0.092977419 0.12787196
0.070866592 -0.092977419 0.12787196
0.071467817 -0.093054622 0.12793614
0.072041661 -0.093209058 0.12806454
0.072641701 -0.093286291 0.12812877
0.073241286 -0.093363509 0.12819296
0.073840387 -0.093440741 0.12825717
0.067651391 -0.093652546 0.12762107
0.068304069 -0.093575507 0.1275567
0.068982944 -0.0934214 0.12742797
0.069610827 -0.0934214 0.12742797
0.070212521 -0.093498439 0.12749232
0.070840165 -0.093498439 0.12749232
0.071467817 -0.093498439 0.12749232
0.072068557 -0.093575507 0.1275567
0.072668836 -0.093652546 0.12762107
0.073241286 -0.093806654 0.1277498
0.073867999 -0.093806654 0.1277498
0.067777701 -0.093711615 0.12685493
0.068457045 -0.093557835 0.12672584
0.069137327 -0.093404055 0.12659676
0.069766618 -0.093404055 0.12659676
0.070422105 -0.09332718 0.12653224
0.07105162 -0.09332718 0.12653224
0.071654484 -0.093404055 0.12659676
0.072203062 -0.093634725 0.12679039
0.072750241 -0.093865395 0.126984
0.073350765 -0.093942255 0.12704851
0.069446087 -0.09292838 0.1253754
0.070078187 -0.09292838 0.1253754
0.070710286 -0.09292838 0.1253754
0.071315952 -0.093005091 0.12544011
0.071894489 -0.093158528 0.12556949
0.072472081 -0.093311965 0.12569889
0.072940193 -0.093772322 0.1260871
0.07348761 -0.09400247 0.1262812
0.069934957 -0.091920793 0.12369601
0.070441693 -0.092303559 0.12402034
0.070841283 -0.092992559 0.12460414
0.071659572 -0.092456669 0.12415007
0.07224115 -0.092609778 0.1242798
0.073103003 -0.093758106 0.12525277
0.070295192 -0.091301396 0.12233546
0.070935018 -0.091301396 0.12233546
0.071548648 -0.09137781 0.12240049
0.072161809 -0.091454193 0.12246552
0.0727745 -0.091530591 0.12253056
0.070552491 -0.090991601 0.12123106
0.071168698 -0.091067806 0.12129626
0.07175824 -0.09122026 0.12142666
0.072373264 -0.091296494 0.12149186
0.07298784 -0.091372713 0.12155706
0.070012309 -0.091141433 0.12051554
0.070655413 -0.091141433 0.12051554
0.071298517 -0.091141433 0.12051554
0.071941629 -0.091141433 0.12051554
0.072584733 -0.091141433 0.12051554
0.073227838 -0.091141433 0.12051554
0.069520764 -0.091140836 0.11966763
0.070267268 -0.09083724 0.11940552
0.07086125 -0.090989038 0.11953658
0.071480274 -0.09106493 0.1196021
0.072125018 -0.09106493 0.1196021
0.072716892 -0.091216713 0.11973315
0.073387839 -0.091140836 0.11966763
0.074032351 -0.091140836 0.11966763
0.069101505 -0.090915009 0.11862066
0.069748126 -0.090915009 0.11862066
0.070369251 -0.090990737 0.11868635
0.070989907 -0.091066465 0.11875202
0.071636058 -0.091066465 0.11875202
0.072256014 -0.091142192 0.11881775
0.072875492 -0.091217905 0.11888342
0.073521182 -0.091217905 0.11888342
0.07413996 -0.091293648 0.11894912
0.069301724 -0.090767741 0.11763655
0.069924966 -0.09084329 0.11770241
0.07054773 -0.090918869 0.11776827
0.071170017 -0.090994418 0.11783411
0.071817815 -0.090994418 0.11783411
0.072360806 -0.091296673 0.11809756
0.073007658 -0.091296673 0.11809756
0.07365451 -0.091296673 0.11809756
0.074274465 -0.091372252 0.11816342
0.069049932 -0.090019941 0.11612161
0.069602057 -0.090321541 0.11638571
0.070177577 -0.090547711 0.11658378
0.070700705 -0.090924695 0.11691388
0.071324393 -0.09100011 0.11697993
0.071947634 -0.091075495 0.11704594
0.072544202 -0.091226295 0.11717799
0.073166259 -0.09130168 0.11724402
0.073814519 -0.09130168 0.11724402
0.074435875 -0.091377094 0.11731005
0.069173895 -0.090104997 0.11532946
0.06977725 -0.090255469 0.11546184
0.070329152 -0.090556368 0.11572659
0.070879176 -0.090857297 0.11599134
0.071504503 -0.090932548 0.11605754
0.072077453 -0.091158226 0.11625612
0.072648995 -0.091383904 0.11645468
0.073271982 -0.09145917 0.11652087
0.073894516 -0.091534376 0.11658706
0.074543484 -0.091534376 0.11658706
0.069347449 -0.090041578 0.11440293
0.069927417 -0.090266749 0.114602
0.070480719 -0.090567023 0.11486742
0.071057647 -0.090792209 0.11506648
0.071633168 -0.09101741 0.11526555
0.072207272 -0.091242626 0.11546463
0.07280618 -0.091392756 0.11559734
0.073404156 -0.09154287 0.11573003
0.074027851 -0.091617942 0.1157964
0.068523854 -0.089006752 0.11260931
0.069036238 -0.089456141 0.11300842
0.069545805 -0.08990556 0.11340757
0.07010261 -0.090205148 0.11367366
0.070632294 -0.090579659 0.11400625
0.071236119 -0.090729445 0.1141393
0.071787544 -0.091029063 0.11440539
0.072337106 -0.091328636 0.11467147
0.072937183 -0.091478452 0.11480451
0.073509879 -0.091703162 0.11500409
0.074161187 -0.091703162 0.11500409
0.068008669 -0.089024842 0.11174268
0.068572506 -0.089323789 0.11200944
0.069159031 -0.089547992 0.11220948
0.069669768 -0.089996397 0.11260961
0.070202723 -0.090370074 0.11294305
0.070783868 -0.090594262 0.1131431
0.071389101 -0.090743735 0.11327648
0.071941927 -0.091042683 0.11354323
0.072518855 -0.09126687 0.11374329
0.073068172 -0.091565818 0.11401004
0.073694907 -0.091640562 0.11407673
0.07429453 -0.091790006 0.1142101
0.068080939 -0.089268655 0.11107463
0.06869413 -0.089417785 0.11120833
0.069208153 -0.089865178 0.11160944
0.069768943 -0.090163469 0.11187686
0.070327863 -0.090461731 0.11214426
0.070935436 -0.090610877 0.11227798
0.071491078 -0.090909168 0.1125454
0.072070576 -0.091132864 0.11274594
0.072622709 -0.091431141 0.11301337
0.073225372 -0.091580257 0.11314705
0.07382708 -0.091729403 0.11328076
0.067586094 -0.08921583 0.11013751
0.068177305 -0.08943902 0.11033857
0.068742782 -0.08973664 0.11060664
0.069281831 -0.090108648 0.11094174
0.069892913 -0.090257466 0.11107577
0.07047803 -0.090480655 0.11127682
0.071061745 -0.09070389 0.11147788
0.07164406 -0.090927079 0.11167893
0.072199225 -0.0912247 0.11194701
0.072804458 -0.091373518 0.11208105
0.07340876 -0.091522306 0.11221506
0.074012108 -0.091671109 0.11234911
0.067040734 -0.089313775 0.10933243
0.067633808 -0.089536503 0.109534
0.068225488 -0.089759201 0.10973553
0.068791434 -0.090056151 0.11000428
0.069380067 -0.090278864 0.11020581
0.070016876 -0.090353101 0.11027302
0.070578143 -0.090650052 0.11054173
0.071188062 -0.090798512 0.11067611
0.071746044 -0.091095477 0.11094485
0.072353609 -0.091243953 0.11107922
0.072960243 -0.091392428 0.11121358
0.073565945 -0.091540903 0.11134796
0.067705385 -0.089783743 0.10886246
0.068297759 -0.090005979 0.10906452
0.068913057 -0.090154126 0.10919921
0.06950286 -0.090376332 0.10940126
0.070116051 -0.09052448 0.10953596
0.070703283 -0.090746686 0.10973799
0.07133963 -0.09082076 0.10980535
0.071899027 -0.091117054 0.11007473
0.072482258 -0.091339275 0.11027679
0.073116034 -0.091413334 0.11034414
0.066609956 -0.089514673 0.10771732
0.067229711 -0.089662492 0.10785235
0.067824662 -0.089884207 0.10805489
0.068418212 -0.090105921 0.10825744
0.069059014 -0.090179831 0.10832496
0.069625661 -0.09047547 0.10859503
0.070240021 -0.090623289 0.10873005
0.070878476 -0.090697169 0.10879757
0.071491197 -0.090844989 0.1089326
0.072077498 -0.091066688 0.10913514
0.072688103 -0.091214508 0.10927017
0.073297784 -0.091362327 0.1094052
0.067347817 -0.089765102 0.10704266
0.067920096 -0.09006004 0.10731336
0.068538666 -0.090207532 0.10744873
0.069180638 -0.090281278 0.10751642
0.069773018 -0.090502486 0.10771945
0.070413575 -0.090576246 0.10778713
0.071053669 -0.090649977 0.10785481
0.071668029 -0.090797469 0.10799018
0.072255969 -0.091018677 0.1081932
0.072893947 -0.091092438 0.1082609
0.073531464 -0.091166154 0.10832858
0.068039373 -0.090163648 0.10650267
0.068683207 -0.09023723 0.10657053
0.069326587 -0.090310797 0.10663836
0.069920376 -0.090531513 0.10684189
0.070562333 -0.090605095 0.10690975
0.071203835 -0.090678662 0.10697758
0.071819603 -0.090825826 0.10711327
0.07243444 -0.09097296 0.10724898
0.073074058 -0.091046557 0.10731682
0.073739178 -0.091046557 0.10731682
0.067631297 -0.089828432 0.10528223
0.068230227 -0.090048671 0.10548629
0.068827756 -0.09026891 0.1056903
0.069496863 -0.09026891 0.1056903
0.070067726 -0.090562537 0.10596237
0.070735887 -0.090562537 0.10596237
0.071353994 -0.090709358 0.1060984
0.0720217 -0.090709358 0.1060984
0.072663903 -0.090782762 0.10616638
0.073279902 -0.090929583 0.10630241
0.073998831 -0.090782762 0.10616638
0.067218058 -0.089496881 0.10405815
0.067773022 -0.089863107 0.10439906
0.068373367 -0.090082839 0.10460359
0.068996392 -0.090229318 0.10473993
0.069618486 -0.090375811 0.10487629
0.070239641 -0.090522304 0.10501266
0.070884652 -0.090595543 0.10508083
0.071529187 -0.090668797 0.10514902
0.072198533 -0.090668797 0.10514902
0.072842374 -0.090742037 0.10521717
0.073511474 -0.090742037 0.10521717
0.074154615 -0.090815261 0.10528535
0.067381769 -0.089461252 0.10310382
0.06793838 -0.089826673 0.10344554
0.068516508 -0.09011896 0.10371891
0.069165029 -0.09019205 0.10378726
0.069788761 -0.090338215 0.10392395
0.07043612 -0.090411291 0.10399228
0.071107797 -0.090411291 0.10399228
0.071704395 -0.090630502 0.10419729
0.072375372 -0.090630502 0.10419729
0.073046349 -0.090630502 0.10419729
0.073691584 -0.090703592 0.10426566
0.066938587 -0.089209244 0.10194165
0.067522101 -0.089500904 0.10221568
0.068103746 -0.089792535 0.10248971
0.068707362 -0.090011299 0.10269523
0.069309577 -0.090230018 0.10290076
0.069983363 -0.090230018 0.10290076
0.070632592 -0.090302944 0.10296927
0.071281351 -0.090375856 0.10303777
0.071929641 -0.090448752 0.10310628
0.072602727 -0.090448752 0.10310628
0.07322482 -0.090594575 0.10324329
0.073897429 -0.090594575 0.10324329
0.066421963 -0.089178771 0.10098216
0.067054361 -0.089324281 0.10111952
0.067662433 -0.089542508 0.10132553
0.06822186 -0.089906231 0.10166889
0.068850502 -0.090051726 0.10180625
0.069502302 -0.090124488 0.10187493
0.07012932 -0.090269968 0.10201228
0.070779949 -0.09034273 0.10208096
0.071454905 -0.09034273 0.10208096
0.072104834 -0.090415463 0.10214961
0.072779559 -0.090415463 0.10214961
0.073428787 -0.090488225 0.1022183
0.074129 -0.090415463 0.10214961
0.066513643 -0.089368358 0.10022688
0.067146979 -0.089513525 0.10036457
0.06777937 -0.089658692 0.10050225
0.068410829 -0.08980386 0.10063994
0.0690175 -0.090021595 0.10084644
0.06964685 -0.090166762 0.10098413
0.070275269 -0.09031193 0.10112181
0.070951864 -0.09031193 0.10112181
0.071603663 -0.090384498 0.10119063
0.072254993 -0.090457097 0.10125948
0.072931126 -0.090457097 0.10125948
0.073607258 -0.090457097 0.10125948
0.074257657 -0.090529665 0.10132831
0.065947428 -0.089486867 0.09940128
0.066582404 -0.089631706 0.099539295
0.067216434 -0.089776546 0.099677294
0.067872927 -0.089848936 0.099746302
0.068481706 -0.09006618 0.099953324
0.069136783 -0.090138614 0.10002233
0.069791399 -0.090211019 0.10009132
0.070445538 -0.090283453 0.10016035
0.071074657 -0.090428278 0.10029835
0.071752422 -0.090428278 0.10029835
0.072405167 -0.090500683 0.10036735
0.073057435 -0.090573102 0.10043637
0.073734738 -0.090573102 0.10043637
0.074412033 -0.090573102 0.10043637
0.065947428 -0.089968264 0.098919868
0.066628247 -0.089968264 0.098919868
0.067309052 -0.089968264 0.098919868
0.067919701 -0.090185016 0.099127382
0.068599813 -0.090185016 0.099127382
0.06925606 -0.090257287 0.099196553
0.06986367 -0.090474024 0.099404067
0.070542842 -0.090474024 0.099404067
0.071197458 -0.090546265 0.099473238
0.071876399 -0.090546265 0.099473238
0.072530299 -0.090618521 0.099542424
0.07320901 -0.090618521 0.099542424
0.073862225 -0.090690777 0.099611565
0.07454069 -0.090690777 0.099611565
0.066674083 -0.090305507 0.098299786
0.067355365 -0.090305507 0.098299786
0.068013258 -0.090377584 0.098369122
0.068670683 -0.090449676 0.098438472
0.069303781 -0.09059386 0.098577142
0.069984123 -0.09059386 0.098577142
0.070640147 -0.090665936 0.098646462
0.071320251 -0.090665936 0.098646462
0.071975566 -0.090738028 0.098715812
0.072655439 -0.090738028 0.098715812
0.073310055 -0.09081009 0.098785147
0.073989704 -0.09081009 0.098785147
0.074669339 -0.09081009 0.098785147
0.065378875 -0.090571493 0.097609565
0.066060856 -0.090571493 0.097609565
0.066697001 -0.090715349 0.097748548
0.067378514 -0.090715349 0.097748548
0.068060026 -0.090715349 0.097748548
0.068741545 -0.090715349 0.097748548
0.069423057 -0.090715349 0.097748548
0.070104577 -0.090715349 0.097748548
0.07076177 -0.090787247 0.097818047
0.071443051 -0.090787247 0.097818047
0.072099537 -0.09085916 0.097887546
0.072780579 -0.09085916 0.097887546
0.073461629 -0.09085916 0.097887546
0.07414268 -0.09085916 0.097887546
0.074823722 -0.09085916 0.097887546
0.065446235 -0.090838462 0.0969183
0.06610623 -0.090910226 0.096987978
0.066788681 -0.090910226 0.096987978
0.067471132 -0.090910226 0.096987978
0.068153583 -0.090910226 0.096987978
0.068859667 -0.090838462 0.0969183
0.069542348 -0.090838462 0.0969183
0.07022503 -0.090838462 0.0969183
0.070907719 -0.090838462 0.0969183
0.071590409 -0.090838462 0.0969183
0.072248295 -0.090910226 0.096987978
0.072930746 -0.090910226 0.096987978
0.073613197 -0.090910226 0.096987978
0.074295655 -0.090910226 0.096987978
0.074978098 -0.090910226 0.096987978
0.066880368 -0.09110643 0.096226066
0.067586899 -0.091034859 0.096156254
0.068270527 -0.091034859 0.096156254
0.068977773 -0.090963259 0.096086398
0.069661632 -0.090963259 0.096086398
0.070345484 -0.090963259 0.096086398
0.071029343 -0.090963259 0.096086398
0.071713202 -0.090963259 0.096086398
0.072397061 -0.090963259 0.096086398
0.073080912 -0.090963259 0.096086398
0.073739506 -0.091034859 0.096156254
0.074423134 -0.091034859 0.096156254
0.066994965 -0.091232553 0.095392853
0.067702681 -0.091161117 0.095322847
0.068387471 -0.091161117 0.095322847
0.069072269 -0.091161117 0.095322847
0.069780916 -0.091089696 0.095252857
0.070490032 -0.091018274 0.095182836
0.0711753 -0.091018274 0.095182836
0.071835995 -0.091089696 0.095252857
0.072496235 -0.091161117 0.095322847
0.073206052 -0.091089696 0.095252857
0.073865823 -0.091161117 0.095322847
0.074550621 -0.091161117 0.095322847
0.067132488 -0.091289058 0.094487816
0.067795292 -0.091360331 0.094557986
0.068504408 -0.091289058 0.094487816
0.069214001 -0.091217816 0.094417647
0.069900192 -0.091217816 0.094417647
0.070634574 -0.091075301 0.094277307
0.071321249 -0.091075301 0.094277307
0.071958795 -0.091217816 0.094417647
0.072620198 -0.091289058 0.094487816
0.073331185 -0.091217816 0.094417647
0.073992133 -0.091289058 0.094487816
0.074678101 -0.091289058 0.094487816
0.067270003 -0.091347545 0.093580768
0.067957371 -0.091347545 0.093580768
0.068691514 -0.091205388 0.09344013
0.069402978 -0.091134295 0.093369782
0.070091054 -0.091134295 0.093369782
0.07080321 -0.091063201 0.093299463
0.071467198 -0.091134295 0.093369782
0.072081596 -0.091347545 0.093580768
0.072768964 -0.091347545 0.093580768
0.073456332 -0.091347545 0.093580768
0.0741437 -0.091347545 0.093580768
0.067453362 -0.091266215 0.092530772
0.068165764 -0.091195285 0.092460245
0.068878621 -0.091124356 0.092389777
0.069568336 -0.091124356 0.092389777
0.070258051 -0.091124356 0.092389777
0.070995942 -0.090982497 0.092248783
0.071637474 -0.091124356 0.092389777
0.072302625 -0.091195285 0.092460245
0.072967306 -0.091266215 0.092530772
0.073656552 -0.091266215 0.092530772
0.07432054 -0.091337115 0.092601255
0.06830468 -0.091258273 0.091548771
0.069065735 -0.091045976 0.091336772
0.06975732 -0.091045976 0.091336772
0.070472762 -0.09097521 0.091266125
0.071164578 -0.09097521 0.091266125
0.071856402 -0.09097521 0.091266125
0.072523661 -0.091045976 0.091336772
0.073190451 -0.091116741 0.091407448
0.073831744 -0.091258273 0.091548771
0.068489917 -0.091182038 0.090493605
0.069182672 -0.091182038 0.090493605
0.069946297 -0.090970248 0.090281144
0.070639752 -0.090970248 0.090281144
0.071285032 -0.091111436 0.090422809
0.071978025 -0.091111436 0.090422809
0.072671011 -0.091111436 0.090422809
0.073339209 -0.091182038 0.090493605
0.074031964 -0.091182038 0.090493605
0.069369778 -0.091108456 0.089435846
0.070088036 -0.091038018 0.089364842
0.0707829 -0.091038018 0.089364842
0.071477763 -0.091038018 0.089364842
0.072148301 -0.091108456 0.089435846
0.072842926 -0.091108456 0.089435846
0.073537558 -0.091108456 0.089435846
0.074232183 -0.091108456 0.089435846
0.06951011 -0.091178045 0.088517696
0.070206143 -0.091178045 0.088517696
0.070973746 -0.090967268 0.088304237
0.071670488 -0.090967268 0.088304237
0.072367229 -0.090967268 0.088304237
0.073063962 -0.090967268 0.088304237
0.073760696 -0.090967268 0.088304237
0.070395119 -0.091109455 0.08745496
0.071164608 -0.090899155 0.087240964
0.071911395 -0.09075895 0.087098315
0.072586149 -0.090829059 0.087169647
0.073284999 -0.090829059 0.087169647
0.070725843 -0.090623885 0.085960582
0.071474746 -0.090484008 0.085817605
0.072128214 -0.090623885 0.085960582
0.072805077 -0.090693831 0.086032078
0.07348147 -0.090763748 0.086103573
0.071009316 -0.090282515 0.084604919
0.07176102 -0.09014298 0.0844616
0.072369121 -0.090422049 0.084748223
0.073024005 -0.090561569 0.084891543
0.073702507 -0.090631336 0.084963188
0.07077308 -0.089388296 0.082670689
0.071387269 -0.089666709 0.082957983
0.072047301 -0.089805916 0.08310163
0.072754577 -0.089805916 0.08310163
0.073388882 -0.090014696 0.083317086
0 0 0 1 0 0 0 1 0 0 0 1 0 0 0 0 0 578 1 0 0
