ply
format ascii 1.0
comment PCL generated
element vertex 621
property float x
property float y
property float z
element camera 1
property float view_px
property float view_py
property float view_pz
property float x_axisx
property float x_axisy
property float x_axisz
property float y_axisx
property float y_axisy
property float y_axisz
property float z_axisx
property float z_axisy
property float z_axisz
property float focal
property float scalex
property float scaley
property float centerx
property float centery
property int viewportx
property int viewporty
property float k1
property float k2
end_header
0.069163054 -0.088430643 0.13142878
0.069792576 -0.088430643 0.13142878
0.070422105 -0.088430643 0.13142878
0.070998751 -0.088588044 0.13155422
0.071601145 -0.088666752 0.13161692
0.067853481 -0.089032859 0.1311094
0.068482541 -0.089032859 0.1311094
0.069137327 -0.0889543 0.13104652
0.069766618 -0.0889543 0.13104652
0.070369706 -0.089032859 0.1311094
0.070972323 -0.089111388 0.13117227
0.071574479 -0.089189947 0.13123517
0.072149262 -0.089347035 0.13136092
0.072777376 -0.089347035 0.13136092
0.067174368 -0.089634418 0.13079068
0.067828223 -0.089556038 0.13072763
0.068457045 -0.089556038 0.13072763
0.069111593 -0.089477658 0.13066459
0.069740646 -0.089477658 0.13066459
0.070369706 -0.089477658 0.13066459
0.070972323 -0.089556038 0.13072763
0.071547814 -0.089712799 0.13085373
0.072149262 -0.089791179 0.13091677
0.072750241 -0.089869559 0.13097982
0.073378131 -0.089869559 0.13097982
0.066520996 -0.090157107 0.13040942
0.067149349 -0.090157107 0.13040942
0.067802958 -0.090078905 0.13034621
0.068431549 -0.090078905 0.13034621
0.069060132 -0.090078905 0.13034621
0.069688715 -0.090078905 0.13034621
0.070317306 -0.090078905 0.13034621
0.070919462 -0.090157107 0.13040942
0.071547814 -0.090157107 0.13040942
0.072122365 -0.090313539 0.13053584
0.072723113 -0.090391725 0.13059902
0.073350765 -0.090391725 0.13059902
0.073978417 -0.090391725 0.13059902
0.066471405 -0.090757519 0.13009186
0.067099288 -0.090757519 0.13009186
0.067727178 -0.090757519 0.13009186
0.068380557 -0.090679482 0.13002849
0.069008671 -0.090679482 0.13002849
0.069610827 -0.090757519 0.13009186
0.070238717 -0.090757519 0.13009186
0.070893019 -0.090679482 0.13002849
0.071521141 -0.090679482 0.13002849
0.072095469 -0.090835541 0.13015521
0.072723113 -0.090835541 0.13015521
0.073323391 -0.090913609 0.1302186
0.073950805 -0.090913609 0.1302186
0.074550383 -0.090991646 0.13028197
0.065794408 -0.091357261 0.12977494
0.066421822 -0.091357261 0.12977494
0.067074262 -0.091279358 0.12971139
0.067701921 -0.091279358 0.12971139
0.068329573 -0.091279358 0.12971139
0.068982944 -0.091201499 0.12964788
0.069610827 -0.091201499 0.12964788
0.070238717 -0.091201499 0.12964788
0.070866592 -0.091201499 0.12964788
0.071494475 -0.091201499 0.12964788
0.072068557 -0.091357261 0.12977494
0.072723113 -0.091279358 0.12971139
0.073323391 -0.091357261 0.12977494
0.073923208 -0.091435134 0.12983848
0.07452254 -0.091513023 0.12990203
0.065745287 -0.091956347 0.12945871
0.066397026 -0.091878608 0.12939501
0.067049235 -0.091800898 0.12933129
0.067676648 -0.091800898 0.12933129
0.068329573 -0.091723174 0.12926759
0.068957217 -0.091723174 0.12926759
0.069584869 -0.091723174 0.12926759
0.070212521 -0.091723174 0.12926759
0.070840165 -0.091723174 0.12926759
0.071494475 -0.091645479 0.1292039
0.072095469 -0.091723174 0.12926759
0.072695971 -0.091800898 0.12933129
0.073323391 -0.091800898 0.12933129
0.073923208 -0.091878608 0.12939501
0.074550383 -0.091878608 0.12939501
0.075177565 -0.091878608 0.12939501
0.065745287 -0.092399657 0.1290154
0.066397026 -0.092322096 0.12895152
0.067049235 -0.092244551 0.12888765
0.067651391 -0.092322096 0.12895152
0.068304069 -0.092244551 0.12888765
0.068931475 -0.092244551 0.12888765
0.069584869 -0.09216699 0.12882377
0.070212521 -0.09216699 0.12882377
0.070840165 -0.09216699 0.12882377
0.071467817 -0.09216699 0.12882377
0.072095469 -0.09216699 0.12882377
0.072695971 -0.092244551 0.12888765
0.073323391 -0.092244551 0.12888765
0.073923208 -0.092322096 0.12895152
0.074550383 -0.092322096 0.12895152
0.075177565 -0.092322096 0.12895152
0.06572073 -0.092920363 0.12863611
0.066372231 -0.092842981 0.12857208
0.067024209 -0.092765585 0.12850803
0.067651391 -0.092765585 0.12850803
0.068278573 -0.092765585 0.12850803
0.068931475 -0.092688203 0.128444
0.069584869 -0.092610806 0.12837996
0.070238717 -0.092533439 0.12831593
0.070866592 -0.092533439 0.12831593
0.071494475 -0.092533439 0.12831593
0.072068557 -0.092688203 0.128444
0.072695971 -0.092688203 0.128444
0.073323391 -0.092688203 0.128444
0.073923208 -0.092765585 0.12850803
0.074550383 -0.092765585 0.12850803
0.066372231 -0.093286291 0.12812877
0.067049235 -0.093131855 0.12800035
0.067676648 -0.093131855 0.12800035
0.068304069 -0.093131855 0.12800035
0.068982944 -0.092977419 0.12787196
0.069636784 -0.092900217 0.12780775
0.070291109 -0.092822984 0.12774354
0.070919462 -0.092822984 0.12774354
0.071547814 -0.092822984 0.12774354
0.072149262 -0.092900217 0.12780775
0.072750241 -0.092977419 0.12787196
0.073350765 -0.093054622 0.12793614
0.074006014 -0.092977419 0.12787196
0.074578218 -0.093131855 0.12800035
0.067024209 -0.093652546 0.12762107
0.067676648 -0.093575507 0.1275567
0.068304069 -0.093575507 0.1275567
0.068982944 -0.0934214 0.12742797
0.069662757 -0.093267292 0.12729923
0.070291109 -0.093267292 0.12729923
0.070919462 -0.093267292 0.12729923
0.071547814 -0.093267292 0.12729923
0.072149262 -0.093344361 0.12736361
0.072750241 -0.0934214 0.12742797
0.073378131 -0.0934214 0.12742797
0.074006014 -0.0934214 0.12742797
0.067099288 -0.093865395 0.126984
0.067802958 -0.093634725 0.12679039
0.068431549 -0.093634725 0.12679039
0.069111593 -0.093480945 0.12666132
0.069792576 -0.09332718 0.12653224
0.070422105 -0.09332718 0.12653224
0.07105162 -0.09332718 0.12653224
0.071654484 -0.093404055 0.12659676
0.072256871 -0.093480945 0.12666132
0.072831646 -0.093634725 0.12679039
0.073405497 -0.093788505 0.12691946
0.074033618 -0.093788505 0.12691946
0.06790401 -0.093772322 0.1260871
0.068533532 -0.093772322 0.1260871
0.069188789 -0.093695566 0.1260224
0.069922395 -0.093388706 0.12576361
0.070553094 -0.093388706 0.12576361
0.071104489 -0.09361887 0.12595771
0.071814477 -0.093388706 0.12576361
0.072364479 -0.09361887 0.12595771
0.072913058 -0.093849018 0.1261518
0.073514976 -0.093925759 0.1262165
0.068131365 -0.09352845 0.12505819
0.068839483 -0.093298778 0.12486359
0.069574736 -0.092992559 0.12460414
0.070233978 -0.092915997 0.12453926
0.070841283 -0.092992559 0.12460414
0.071448117 -0.093069106 0.12466897
0.072081156 -0.093069106 0.12466897
0.072552785 -0.09352845 0.12505819
0.073320083 -0.093145669 0.12473385
0.069934957 -0.092370898 0.12324591
0.070784062 -0.09076114 0.12018874
0.071402378 -0.090837181 0.12025408
0.072072625 -0.09076114 0.12018874
0.072743326 -0.090685084 0.12012337
0.073361173 -0.09076114 0.12018874
0.069722869 -0.090533674 0.11914341
0.070394747 -0.090457782 0.11907789
0.070989907 -0.090609565 0.11920892
0.071636058 -0.090609565 0.11920892
0.072256014 -0.090685472 0.11927447
0.072901927 -0.090685472 0.11927447
0.07354784 -0.090685472 0.11927447
0.069899701 -0.090460643 0.1182265
0.070522234 -0.090536371 0.11829217
0.071118556 -0.090687811 0.11842357
0.071739912 -0.090763554 0.11848927
0.072360806 -0.090839282 0.11855495
0.073007658 -0.090839282 0.11855495
0.073627844 -0.090915009 0.11862066
0.074274465 -0.090915009 0.11862066
0.069501951 -0.090163231 0.11710967
0.070101798 -0.090314358 0.1172414
0.070649713 -0.090616614 0.11750482
0.071272932 -0.090692177 0.1175707
0.071895704 -0.090767741 0.11763655
0.072491802 -0.090918869 0.11776827
0.073113389 -0.090994418 0.11783411
0.07376118 -0.090994418 0.11783411
0.069173895 -0.089642972 0.11579148
0.069727205 -0.089944541 0.11605556
0.070253365 -0.090321541 0.11638571
0.070828184 -0.090547711 0.11658378
0.071427315 -0.09069851 0.11671583
0.071999565 -0.090924695 0.11691388
0.072622791 -0.09100011 0.11697993
0.073219113 -0.091150895 0.11711198
0.073867843 -0.091150895 0.11711198
0.074516572 -0.091150895 0.11711198
0.069248281 -0.089879289 0.11513087
0.069827311 -0.090104997 0.11532946
0.070404939 -0.090330675 0.11552802
0.070981167 -0.090556368 0.11572659
0.071555965 -0.090782076 0.11592516
0.072155342 -0.090932548 0.11605754
0.072727591 -0.091158226 0.11625612
0.073377714 -0.091158226 0.11625612
0.074001186 -0.091233462 0.11632229
0.074651085 -0.091233462 0.11632229
0.069372252 -0.089966491 0.11433658
0.069977477 -0.090116635 0.11446927
0.070556514 -0.090341821 0.11466834
0.071134135 -0.090567023 0.11486742
0.071710356 -0.090792209 0.11506648
0.072285175 -0.09101741 0.11526555
0.072858579 -0.091242626 0.11546463
0.073483452 -0.091317669 0.11553097
0.074107848 -0.091392756 0.11559734
0.07473179 -0.091467813 0.11566368
0.068572506 -0.088856965 0.11247627
0.069011673 -0.089531049 0.11307496
0.069521002 -0.089980468 0.1134741
0.07010261 -0.090205148 0.11367366
0.070682824 -0.090429857 0.11387321
0.071261622 -0.090654537 0.11407277
0.071839005 -0.090879261 0.11427234
0.072414994 -0.091103956 0.1144719
0.073015779 -0.091253743 0.11460495
0.073642053 -0.091328636 0.11467147
0.074241191 -0.091478452 0.11480451
0.068129122 -0.08865118 0.11140926
0.068572506 -0.089323789 0.11200944
0.069060795 -0.089846939 0.11247624
0.06964498 -0.090071127 0.11267629
0.07027781 -0.090145871 0.11274299
0.070834383 -0.090444818 0.11300975
0.07141459 -0.090669006 0.1132098
0.071967654 -0.090967953 0.11347656
0.072544813 -0.091192141 0.11367661
0.073146768 -0.091341615 0.11380999
0.073747776 -0.091491088 0.11394337
0.074374527 -0.091565818 0.11401004
0.06869413 -0.089417785 0.11120833
0.069183588 -0.089939758 0.11167631
0.069744147 -0.09023805 0.11194372
0.070352897 -0.090387166 0.1120774
0.070960701 -0.090536296 0.11221112
0.071516581 -0.090834588 0.11247854
0.072122037 -0.090983734 0.11261223
0.072700605 -0.09120743 0.11281279
0.073277757 -0.091431141 0.11301337
0.073906377 -0.091505706 0.1130802
0.068249576 -0.08921583 0.11013751
0.068742782 -0.08973664 0.11060664
0.069257274 -0.090183049 0.11100873
0.069843322 -0.090406269 0.11120979
0.07047803 -0.090480655 0.11127682
0.071036488 -0.090778291 0.11154489
0.071669556 -0.090852663 0.1116119
0.072250687 -0.091075897 0.11181296
0.072830424 -0.091299102 0.11201403
0.073461153 -0.091373518 0.11208105
0.074091405 -0.09144792 0.11214805
0.068864405 -0.089833438 0.10980272
0.069404624 -0.090204641 0.11013864
0.070016876 -0.090353101 0.11027302
0.07060317 -0.090575814 0.11047457
0.071188062 -0.090798512 0.11067611
0.071797036 -0.090947002 0.11081047
0.072379336 -0.09116973 0.11101204
0.072986215 -0.091318175 0.11114639
0.073618345 -0.091392428 0.11121358
0.074250005 -0.091466665 0.11128075
0.068418212 -0.089635611 0.10872777
0.06896171 -0.090005979 0.10906452
0.069551982 -0.090228185 0.10926655
0.070165642 -0.090376332 0.10940126
0.070778362 -0.09052448 0.10953596
0.071364895 -0.090746686 0.10973799
0.071899027 -0.091117054 0.11007473
0.072533719 -0.091191128 0.11014211
0.073167965 -0.091265187 0.11020944
0.073801734 -0.091339275 0.11027679
0.068182513 -0.08877562 0.10704219
0.069156311 -0.089884207 0.10805489
0.069723897 -0.090179831 0.10832496
0.070339195 -0.09032765 0.10845999
0.070903495 -0.090623289 0.10873005
0.071491197 -0.090844989 0.1089326
0.072077498 -0.091066688 0.10913514
0.072739564 -0.091066688 0.10913514
0.073349714 -0.091214508 0.10927017
0.073985122 -0.091288432 0.10933769
0.068803668 -0.089396372 0.10670424
0.069375239 -0.089691341 0.10697497
0.069920376 -0.09006004 0.10731336
0.070512749 -0.090281278 0.10751642
0.071153782 -0.090355009 0.10758407
0.071718559 -0.090649977 0.10785481
0.072357953 -0.090723708 0.10792249
0.07299687 -0.090797469 0.10799018
0.07360936 -0.090944946 0.10812555
0.074247114 -0.091018677 0.1081932
0.067381769 -0.088029951 0.10453512
0.068032876 -0.088103548 0.10460298
0.068421081 -0.088986441 0.10541713
0.068996392 -0.089280739 0.10568851
0.069521189 -0.089722201 0.10609561
0.070092291 -0.090016484 0.10636698
0.070711099 -0.090163648 0.10650267
0.071328975 -0.090310797 0.10663836
0.071920656 -0.090531513 0.10684189
0.072536424 -0.090678662 0.10697758
0.07317698 -0.090752259 0.10704544
0.066753358 -0.08836025 0.10392199
0.067381769 -0.088507056 0.10405801
0.067985624 -0.088727295 0.10426207
0.068516508 -0.089167744 0.10467012
0.069092758 -0.089461386 0.10494219
0.069667138 -0.089755028 0.10521422
0.070239641 -0.090048671 0.10548629
0.070884652 -0.090122074 0.10555428
0.071504168 -0.09026891 0.1056903
0.072097488 -0.090489119 0.10589434
0.072714895 -0.09063594 0.10603037
0.073382825 -0.09063594 0.10603037
0.07407672 -0.090562537 0.10596237
0.066753358 -0.088837683 0.10344456
0.067381769 -0.088984162 0.10358091
0.068032876 -0.089057431 0.10364909
0.068635792 -0.089277148 0.10385363
0.069189124 -0.089643359 0.10419451
0.069837414 -0.089716613 0.10426269
0.07043612 -0.089936346 0.10446723
0.071033418 -0.090156063 0.10467175
0.071679361 -0.090229318 0.10473993
0.072299577 -0.090375811 0.10487629
0.072995357 -0.090302557 0.10480811
0.073537201 -0.090668797 0.10514902
0.066124007 -0.089168966 0.10283045
0.066730201 -0.089388192 0.10303549
0.067381769 -0.089461252 0.10310382
0.067985624 -0.089680508 0.10330886
0.068659648 -0.089680508 0.10330886
0.069285482 -0.089826673 0.10344554
0.06986174 -0.09011896 0.10371891
0.070509791 -0.09019205 0.10378726
0.071182176 -0.09019205 0.10378726
0.071829528 -0.090265125 0.10385559
0.072476409 -0.090338215 0.10392395
0.073122837 -0.090411291 0.10399228
0.073743045 -0.090557456 0.10412897
0.074466191 -0.090411291 0.10399228
0.065402977 -0.089792535 0.10248971
0.066124007 -0.089646727 0.10235269
0.066753358 -0.089792535 0.10248971
0.067405157 -0.089865461 0.10255823
0.068056501 -0.089938357 0.10262671
0.068731219 -0.089938357 0.10262671
0.069381848 -0.090011299 0.10269523
0.070007689 -0.090157107 0.10283226
0.070681706 -0.090157107 0.10283226
0.071330935 -0.090230018 0.10290076
0.072004721 -0.090230018 0.10290076
0.072678514 -0.090230018 0.10290076
0.073301308 -0.090375856 0.10303777
0.074000344 -0.090302944 0.10296927
0.074673899 -0.090302944 0.10296927
0.065448344 -0.090124488 0.10187493
0.066078171 -0.090269968 0.10201228
0.066799663 -0.090124488 0.10187493
0.067475319 -0.090124488 0.10187493
0.068150982 -0.090124488 0.10187493
0.068778932 -0.090269968 0.10201228
0.069502302 -0.090124488 0.10187493
0.07012932 -0.090269968 0.10201228
0.070804507 -0.090269968 0.10201228
0.071454905 -0.09034273 0.10208096
0.072129861 -0.09034273 0.10208096
0.072804816 -0.09034273 0.10208096
0.073454283 -0.090415463 0.10214961
0.074129 -0.090415463 0.10214961
0.065516405 -0.090384498 0.10119063
0.066192769 -0.090384498 0.10119063
0.066869132 -0.090384498 0.10119063
0.067522101 -0.090457097 0.10125948
0.06822186 -0.090384498 0.10119063
0.068874359 -0.090457097 0.10125948
0.06957458 -0.090384498 0.10119063
0.070226617 -0.090457097 0.10125948
0.070927307 -0.090384498 0.10119063
0.071578868 -0.090457097 0.10125948
0.072254993 -0.090457097 0.10125948
0.072931126 -0.090457097 0.10125948
0.073607258 -0.090457097 0.10125948
0.074257657 -0.090529665 0.10132831
0.06486249 -0.090790361 0.10064338
0.065539084 -0.090790361 0.10064338
0.066261522 -0.090645522 0.10050537
0.066892281 -0.090790361 0.10064338
0.067615651 -0.090645522 0.10050537
0.068292722 -0.090645522 0.10050537
0.068969786 -0.090645522 0.10050537
0.069670938 -0.090573102 0.10043637
0.07034824 -0.090573102 0.10043637
0.071025535 -0.090573102 0.10043637
0.071702838 -0.090573102 0.10043637
0.072380133 -0.090573102 0.10043637
0.073057435 -0.090573102 0.10043637
0.073734738 -0.090573102 0.10043637
0.074412033 -0.090573102 0.10043637
0.075089335 -0.090573102 0.10043637
0.06425254 -0.091052026 0.099957451
0.064929843 -0.091052026 0.099957451
0.065629832 -0.09097977 0.099888265
0.06628444 -0.091052026 0.099957451
0.066961743 -0.091052026 0.099957451
0.067639038 -0.091052026 0.099957451
0.068339966 -0.09097977 0.099888265
0.069041356 -0.090907529 0.099819094
0.069767304 -0.090763032 0.099680766
0.070445538 -0.090763032 0.099680766
0.071148336 -0.090690777 0.099611565
0.071826808 -0.090690777 0.099611565
0.072480246 -0.090763032 0.099680766
0.073158488 -0.090763032 0.099680766
0.073862225 -0.090690777 0.099611565
0.07454069 -0.090690777 0.099611565
0.07524512 -0.090618521 0.099542424
0.064341411 -0.091242626 0.099201173
0.064974748 -0.09138678 0.099339843
0.065652512 -0.09138678 0.099339843
0.066376127 -0.091242626 0.099201173
0.067054361 -0.091242626 0.099201173
0.067685813 -0.09138678 0.099339843
0.068410829 -0.091242626 0.099201173
0.069136783 -0.091098443 0.099062502
0.069839582 -0.091026351 0.098993152
0.070542842 -0.090954274 0.098923817
0.071222015 -0.090954274 0.098923817
0.071901187 -0.090954274 0.098923817
0.07258036 -0.090954274 0.098923817
0.073259532 -0.090954274 0.098923817
0.073938712 -0.090954274 0.098923817
0.074617878 -0.090954274 0.098923817
0.064341411 -0.091722205 0.098721594
0.065042108 -0.091650277 0.098652065
0.065720573 -0.091650277 0.098652065
0.066399045 -0.091650277 0.098652065
0.067100666 -0.091578364 0.098582581
0.067802764 -0.091506436 0.098513067
0.068505324 -0.091434523 0.098443568
0.069232211 -0.091290668 0.09830457
0.06993594 -0.09121877 0.098235071
0.070640147 -0.091146842 0.098165557
0.071344808 -0.091074929 0.098096073
0.072000362 -0.091146842 0.098165557
0.072705492 -0.091074929 0.098096073
0.073385842 -0.091074929 0.098096073
0.074117184 -0.090931088 0.09795706
0.074797988 -0.090931088 0.09795706
0.064385846 -0.092058271 0.098102674
0.065087013 -0.091986507 0.098032996
0.065788627 -0.091914758 0.097963333
0.066467807 -0.091914758 0.097963333
0.067193285 -0.091771245 0.097823992
0.067896314 -0.091699526 0.097754315
0.068599813 -0.091627762 0.097684637
0.069351494 -0.0914125 0.097475648
0.070080489 -0.091268986 0.097336307
0.070786089 -0.091197252 0.097266644
0.071516722 -0.091053739 0.097127318
0.072198704 -0.091053739 0.097127318
0.072880685 -0.091053739 0.097127318
0.073562674 -0.091053739 0.097127318
0.074244663 -0.091053739 0.097127318
0.074926637 -0.091053739 0.097127318
0.064474717 -0.092251837 0.0973434
0.065154359 -0.092251837 0.0973434
0.065856688 -0.092180267 0.097273573
0.066559486 -0.092108667 0.097203732
0.067332216 -0.091822296 0.096924409
0.068036646 -0.091750711 0.096854568
0.068812415 -0.09146437 0.096575245
0.069518492 -0.091392785 0.096505418
0.070273213 -0.091178015 0.096295893
0.070980698 -0.09110643 0.096226066
0.07166408 -0.09110643 0.096226066
0.07234747 -0.09110643 0.096226066
0.073005833 -0.091178015 0.096295893
0.073688991 -0.091178015 0.096295893
0.07437215 -0.091178015 0.096295893
0.064585805 -0.092375308 0.096512839
0.065289073 -0.092303872 0.096442834
0.065970115 -0.092303872 0.096442834
0.066697001 -0.092161059 0.096302837
0.067471132 -0.091875359 0.096022844
0.068176977 -0.091803923 0.095952839
0.068954147 -0.091518253 0.095672861
0.069661632 -0.091446817 0.09560284
0.070369571 -0.091375396 0.095532864
0.071126647 -0.091161117 0.095322847
0.071811438 -0.091161117 0.095322847
0.072471432 -0.091232553 0.095392853
0.073181026 -0.091161117 0.095322847
0.073840559 -0.091232553 0.095392853
0.074525118 -0.091232553 0.095392853
0.065378875 -0.092500433 0.095680624
0.066083543 -0.092429176 0.09561044
0.066788681 -0.092357919 0.095540285
0.06756375 -0.092072889 0.095259607
0.068317302 -0.091859132 0.095049128
0.069072269 -0.091645345 0.094838619
0.069804773 -0.091502815 0.094698295
0.070562303 -0.091289058 0.094487816
0.071272597 -0.091217816 0.094417647
0.071934238 -0.091289058 0.094487816
0.072620198 -0.091289058 0.094487816
0.073306166 -0.091289058 0.094487816
0.073966861 -0.091360331 0.094557986
0.074652597 -0.091360331 0.094557986
0.06549114 -0.092627198 0.094846711
0.066174291 -0.092627198 0.094846711
0.066926204 -0.092413932 0.094635725
0.067702681 -0.092129558 0.094354406
0.068481021 -0.091845214 0.094073102
0.069261245 -0.091560841 0.093791768
0.069995627 -0.091418669 0.093651101
0.070706852 -0.091347545 0.093580768
0.071394227 -0.091347545 0.093580768
0.072081596 -0.091347545 0.093580768
0.072744168 -0.091418669 0.093651101
0.073431298 -0.091418669 0.093651101
0.074118435 -0.091418669 0.093651101
0.067132488 -0.092259169 0.093517706
0.06788791 -0.092046395 0.093306214
0.068691514 -0.091691762 0.092953756
0.069497474 -0.091337115 0.092601255
0.070210338 -0.091266215 0.092530772
0.070923671 -0.091195285 0.092460245
0.071613155 -0.091195285 0.092460245
0.072278067 -0.091266215 0.092530772
0.072967306 -0.091266215 0.092530772
0.073631525 -0.091337115 0.092601255
0.07432054 -0.091337115 0.092601255
0.066559941 -0.092390418 0.092679352
0.067315839 -0.092178151 0.092467368
0.068119451 -0.091824323 0.092114046
0.068878621 -0.091612056 0.091902077
0.069733694 -0.091116741 0.091407448
0.070472762 -0.09097521 0.091266125
0.07114049 -0.091045976 0.091336772
0.071832076 -0.091045976 0.091336772
0.072499096 -0.091116741 0.091407448
0.07314086 -0.091258273 0.091548771
0.073806718 -0.091329008 0.091619417
0.0744721 -0.091399774 0.091690093
0.066786803 -0.092170343 0.091485187
0.067567959 -0.091887981 0.091201887
0.06837415 -0.091535002 0.090847746
0.069182672 -0.091182038 0.090493605
0.069946297 -0.090970248 0.090281144
0.070663616 -0.090899646 0.090210304
0.071333215 -0.090970248 0.090281144
0.072026677 -0.090970248 0.090281144
0.072671011 -0.091111436 0.090422809
0.073339209 -0.091182038 0.090493605
0.074006937 -0.09125264 0.090564445
0.067797162 -0.091671884 0.090003759
0.068559378 -0.0914606 0.089790791
0.069369778 -0.091108456 0.089435846
0.070088036 -0.091038018 0.089364842
0.070806749 -0.090967596 0.089293852
0.071501851 -0.090967596 0.089293852
0.072172627 -0.091038018 0.089364842
0.072842926 -0.091108456 0.089435846
0.073537558 -0.091108456 0.089435846
0.074232183 -0.091108456 0.089435846
0.069580272 -0.090967268 0.088304237
0.070300639 -0.090896994 0.088233069
0.07102146 -0.090826735 0.088161916
0.071694583 -0.090896994 0.088233069
0.072391555 -0.090896994 0.088233069
0.073088527 -0.090896994 0.088233069
0.073760696 -0.090967268 0.088304237
0.069697209 -0.091109455 0.08745496
0.070513241 -0.09075895 0.087098315
0.071307741 -0.090478584 0.086813033
0.071911395 -0.09075895 0.087098315
0.072659135 -0.090618744 0.086955667
0.073383234 -0.090548664 0.08688435
0.073884666 -0.091109455 0.08745496
0.070001259 -0.090693831 0.086032078
0.070773087 -0.090484008 0.085817605
0.071498595 -0.090414107 0.085746124
0.072176397 -0.090484008 0.085817605
0.072878055 -0.090484008 0.085817605
0.073530592 -0.090623885 0.085960582
0.070375472 -0.090073213 0.084389955
0.071080178 -0.090073213 0.084389955
0.071713306 -0.090282515 0.084604919
0.072320938 -0.090561569 0.084891543
0.073072657 -0.090422049 0.084748223
0.073727064 -0.090561569 0.084891543
0.070041239 -0.089457914 0.082742527
0.070749685 -0.089457914 0.082742527
0.071387269 -0.089666709 0.082957983
0.072071165 -0.089736298 0.083029792
0.072754577 -0.089805916 0.08310163
0.073486187 -0.089736298 0.083029792
0 0 0 1 0 0 0 1 0 0 0 1 0 0 0 0 0 621 1 0 0
