ply
format ascii 1.0
comment PCL generated
element vertex 523
property float x
property float y
property float z
element camera 1
property float view_px
property float view_py
property float view_pz
property float x_axisx
property float x_axisy
property float x_axisz
property float y_axisx
property float y_axisy
property float y_axisz
property float z_axisx
property float z_axisy
property float z_axisz
property float focal
property float scalex
property float scaley
property float centerx
property float centery
property int viewportx
property int viewporty
property float k1
property float k2
end_header
0.069085866 -0.088666752 0.13161692
0.069714688 -0.088666752 0.13161692
0.070343509 -0.088666752 0.13161692
0.070945889 -0.088745475 0.13167964
0.068431549 -0.089189947 0.13123517
0.069034405 -0.089268491 0.13129804
0.069662757 -0.089268491 0.13129804
0.070291109 -0.089268491 0.13129804
0.070919462 -0.089268491 0.13129804
0.071521141 -0.089347035 0.13136092
0.072149262 -0.089347035 0.13136092
0.067124315 -0.089791179 0.13091677
0.067752436 -0.089791179 0.13091677
0.068406053 -0.089712799 0.13085373
0.069034405 -0.089712799 0.13085373
0.069662757 -0.089712799 0.13085373
0.070291109 -0.089712799 0.13085373
0.070919462 -0.089712799 0.13085373
0.071494475 -0.089869559 0.13097982
0.072095469 -0.089947909 0.13104284
0.072750241 -0.089869559 0.13097982
0.067099288 -0.090313539 0.13053584
0.067752436 -0.090235338 0.13047263
0.068380557 -0.090235338 0.13047263
0.069008671 -0.090235338 0.13047263
0.069636784 -0.090235338 0.13047263
0.070264906 -0.090235338 0.13047263
0.070866592 -0.090313539 0.13053584
0.071494475 -0.090313539 0.13053584
0.072095469 -0.090391725 0.13059902
0.072695971 -0.090469956 0.13066225
0.073296025 -0.090548158 0.13072546
0.066421822 -0.090913609 0.1302186
0.067074262 -0.090835541 0.13015521
0.067701921 -0.090835541 0.13015521
0.068329573 -0.090835541 0.13015521
0.068982944 -0.090757519 0.13009186
0.069584869 -0.090835541 0.13015521
0.070238717 -0.090757519 0.13009186
0.070866592 -0.090757519 0.13009186
0.071441144 -0.090913609 0.1302186
0.072068557 -0.090913609 0.1302186
0.072695971 -0.090913609 0.1302186
0.073296025 -0.090991646 0.13028197
0.073895596 -0.091069698 0.13034534
0.066397026 -0.091435134 0.12983848
0.067049235 -0.091357261 0.12977494
0.067676648 -0.091357261 0.12977494
0.068304069 -0.091357261 0.12977494
0.068957217 -0.091279358 0.12971139
0.069584869 -0.091279358 0.12971139
0.070212521 -0.091279358 0.12971139
0.070866592 -0.091201499 0.12964788
0.071441144 -0.091357261 0.12977494
0.072095469 -0.091279358 0.12971139
0.072668836 -0.091435134 0.12983848
0.073323391 -0.091357261 0.12977494
0.073923208 -0.091435134 0.12983848
0.07452254 -0.091513023 0.12990203
0.066397026 -0.091878608 0.12939501
0.067024209 -0.091878608 0.12939501
0.067651391 -0.091878608 0.12939501
0.068304069 -0.091800898 0.12933129
0.068931475 -0.091800898 0.12933129
0.069558896 -0.091800898 0.12933129
0.070212521 -0.091723174 0.12926759
0.070840165 -0.091723174 0.12926759
0.071467817 -0.091723174 0.12926759
0.072068557 -0.091800898 0.12933129
0.072695971 -0.091800898 0.12933129
0.073296025 -0.091878608 0.12939501
0.073923208 -0.091878608 0.12939501
0.07452254 -0.091956347 0.12945871
0.066372231 -0.092399657 0.1290154
0.067024209 -0.092322096 0.12895152
0.067651391 -0.092322096 0.12895152
0.068304069 -0.092244551 0.12888765
0.068905748 -0.092322096 0.12895152
0.069558896 -0.092244551 0.12888765
0.070212521 -0.09216699 0.12882377
0.070840165 -0.09216699 0.12882377
0.071467817 -0.09216699 0.12882377
0.072068557 -0.092244551 0.12888765
0.072668836 -0.092322096 0.12895152
0.073323391 -0.092244551 0.12888765
0.073895596 -0.092399657 0.1290154
0.07452254 -0.092399657 0.1290154
0.066372231 -0.092842981 0.12857208
0.066999175 -0.092842981 0.12857208
0.067651391 -0.092765585 0.12850803
0.068304069 -0.092688203 0.128444
0.068957217 -0.092610806 0.12837996
0.069584869 -0.092610806 0.12837996
0.070212521 -0.092610806 0.12837996
0.070866592 -0.092533439 0.12831593
0.071494475 -0.092533439 0.12831593
0.072122365 -0.092533439 0.12831593
0.072695971 -0.092688203 0.128444
0.073323391 -0.092688203 0.128444
0.073923208 -0.092765585 0.12850803
0.07452254 -0.092842981 0.12857208
0.066999175 -0.093286291 0.12812877
0.067701921 -0.093054622 0.12793614
0.068304069 -0.093131855 0.12800035
0.068931475 -0.093131855 0.12800035
0.069584869 -0.093054622 0.12793614
0.070264906 -0.092900217 0.12780775
0.070919462 -0.092822984 0.12774354
0.071547814 -0.092822984 0.12774354
0.072149262 -0.092900217 0.12780775
0.072723113 -0.093054622 0.12793614
0.073378131 -0.092977419 0.12787196
0.073923208 -0.093209058 0.12806454
0.067701921 -0.093498439 0.12749232
0.068355061 -0.0934214 0.12742797
0.069008671 -0.093344361 0.12736361
0.069636784 -0.093344361 0.12736361
0.070291109 -0.093267292 0.12729923
0.070945889 -0.093190253 0.12723486
0.071547814 -0.093267292 0.12729923
0.072176166 -0.093267292 0.12729923
0.072750241 -0.0934214 0.12742797
0.073378131 -0.0934214 0.12742797
0.073950805 -0.093575507 0.1275567
0.068380557 -0.093788505 0.12691946
0.069137327 -0.093404055 0.12659676
0.069818549 -0.093250275 0.12646769
0.070526898 -0.09301962 0.12627411
0.071157351 -0.09301962 0.12627411
0.071814477 -0.092942744 0.12620957
0.072310671 -0.09332718 0.12653224
0.072885916 -0.093480945 0.12666132
0.073405497 -0.093788505 0.12691946
0.06942036 -0.093005091 0.12544011
0.070026256 -0.093081817 0.12550482
0.070684098 -0.093005091 0.12544011
0.071289517 -0.093081817 0.12550482
0.071894489 -0.093158528 0.12556949
0.070545547 -0.091997325 0.12376086
0.071077071 -0.092303559 0.12402034
0.073238678 -0.09337534 0.12492844
0.070216276 -0.090532973 0.11999264
0.070912711 -0.090380847 0.11986192
0.071480274 -0.090609014 0.120058
0.072098814 -0.090685084 0.12012337
0.072796188 -0.090532973 0.11999264
0.07344117 -0.090532973 0.11999264
0.069697611 -0.090609565 0.11920892
0.070318259 -0.090685472 0.11927447
0.070989907 -0.090609565 0.11920892
0.071610093 -0.090685472 0.11927447
0.072308414 -0.090533674 0.11914341
0.072954789 -0.090533674 0.11914341
0.073627844 -0.090457782 0.11907789
0.069251671 -0.090460643 0.1182265
0.069874443 -0.090536371 0.11829217
0.070471242 -0.090687811 0.11842357
0.071092822 -0.090763554 0.11848927
0.071765885 -0.090687811 0.11842357
0.072413206 -0.090687811 0.11842357
0.07306052 -0.090687811 0.11842357
0.073707849 -0.090687811 0.11842357
0.069451898 -0.090314358 0.1172414
0.07002601 -0.090541065 0.11743897
0.07062421 -0.090692177 0.1175707
0.071298666 -0.090616614 0.11750482
0.071921661 -0.090692177 0.1175707
0.072570391 -0.090692177 0.1175707
0.073219113 -0.090692177 0.1175707
0.073921181 -0.090541065 0.11743897
0.068975553 -0.090246126 0.11631969
0.069602057 -0.090321541 0.11638571
0.070202842 -0.090472341 0.11651775
0.070802689 -0.090623111 0.11664979
0.071427315 -0.09069851 0.11671583
0.072077453 -0.09069851 0.11671583
0.072727591 -0.09069851 0.11671583
0.073377714 -0.09069851 0.11671583
0.074027851 -0.09069851 0.11671583
0.069124311 -0.090255469 0.11546184
0.069752224 -0.090330675 0.11552802
0.070354417 -0.090481147 0.1156604
0.070981167 -0.090556368 0.11572659
0.071555965 -0.090782076 0.11592516
0.072181314 -0.090857297 0.11599134
0.07280618 -0.090932548 0.11605754
0.07345701 -0.090932548 0.11605754
0.074107848 -0.090932548 0.11605754
0.074758686 -0.090932548 0.11605754
0.068692401 -0.090041578 0.11440293
0.069297872 -0.090191677 0.11453563
0.069902398 -0.090341821 0.11466834
0.070455462 -0.090642095 0.11493376
0.071083143 -0.090717167 0.11500014
0.071684629 -0.090867266 0.11513284
0.072311133 -0.090942353 0.11519919
0.072963379 -0.090942353 0.11519919
0.073536314 -0.091167539 0.11539826
0.07418786 -0.091167539 0.11539826
0.074839398 -0.091167539 0.11539826
0.068839759 -0.090055361 0.1135406
0.069421835 -0.090280041 0.11374018
0.07002753 -0.090429857 0.11387321
0.070632294 -0.090579659 0.11400625
0.071236119 -0.090729445 0.1141393
0.071839005 -0.090879261 0.11427234
0.072414994 -0.091103956 0.1144719
0.073068172 -0.091103956 0.1144719
0.073694907 -0.091178864 0.11453845
0.074321188 -0.091253743 0.11460495
0.074947007 -0.091328636 0.11467147
0.068032756 -0.088950127 0.11167599
0.068426557 -0.08977221 0.11240956
0.068962559 -0.090145871 0.11274299
0.069570594 -0.090295345 0.11287637
0.070177697 -0.090444818 0.11300975
0.070783868 -0.090594262 0.1131431
0.071389101 -0.090743735 0.11327648
0.071967654 -0.090967953 0.11347656
0.072570786 -0.091117397 0.11360991
0.073199168 -0.091192141 0.11367661
0.07382708 -0.09126687 0.11374329
0.074454524 -0.091341615 0.11380999
0.068129122 -0.089119509 0.11094093
0.068669811 -0.089492351 0.11127518
0.069109917 -0.090163469 0.11187686
0.069694564 -0.090387166 0.1120774
0.070302837 -0.090536296 0.11221112
0.070884913 -0.090760022 0.11241169
0.071491078 -0.090909168 0.1125454
0.072096311 -0.091058284 0.11267908
0.072700605 -0.09120743 0.11281279
0.07330396 -0.091356561 0.11294651
0.073932804 -0.091431141 0.11301337
0.068718463 -0.089811027 0.11067365
0.069208153 -0.090331852 0.11114277
0.069768943 -0.090629473 0.11141086
0.070402943 -0.09070389 0.11147788
0.071036488 -0.090778291 0.11154489
0.07164406 -0.090927079 0.11167893
0.072250687 -0.091075897 0.11181296
0.072830424 -0.091299102 0.11201403
0.073461153 -0.091373518 0.11208105
0.074091405 -0.09144792 0.11214805
0.068864405 -0.089833438 0.10980272
0.069404624 -0.090204641 0.11013864
0.069942497 -0.090575814 0.11047457
0.070553109 -0.090724304 0.11060894
0.071188062 -0.090798512 0.11067611
0.071797036 -0.090947002 0.11081047
0.072379336 -0.09116973 0.11101204
0.073012173 -0.091243953 0.11107922
0.073644549 -0.091318175 0.11114639
0.074276432 -0.091392428 0.11121358
0.068015516 -0.08882083 0.10798693
0.069034688 -0.089783743 0.10886246
0.069576539 -0.090154126 0.10919921
0.070165642 -0.090376332 0.10940126
0.070753336 -0.090598539 0.10960329
0.071364895 -0.090746686 0.10973799
0.071924515 -0.091042981 0.11000741
0.072533719 -0.091191128 0.11014211
0.073167965 -0.091265187 0.11020944
0.073775537 -0.091413334 0.11034414
0.067607664 -0.088479981 0.10677212
0.068134807 -0.08892341 0.1071772
0.068659119 -0.089366868 0.10758229
0.069180638 -0.089810312 0.10798739
0.069748454 -0.090105921 0.10825744
0.070339195 -0.09032765 0.10845999
0.070928529 -0.09054935 0.10866253
0.071516462 -0.090771094 0.10886508
0.072102986 -0.090992808 0.10906763
0.072739564 -0.091066688 0.10913514
0.07337568 -0.091140628 0.10920265
0.067678541 -0.088732705 0.10609511
0.06820637 -0.089175165 0.10650121
0.069350913 -0.089765102 0.10704266
0.069920376 -0.09006004 0.10731336
0.070537545 -0.090207532 0.10744873
0.071153782 -0.090355009 0.10758407
0.071743816 -0.090576246 0.10778713
0.072357953 -0.090723708 0.10792249
0.07299687 -0.090797469 0.10799018
0.07366129 -0.090797469 0.10799018
0.074247114 -0.091018677 0.1081932
0.074990124 -0.090797469 0.10799018
0.068301797 -0.089354306 0.10575636
0.068875939 -0.089648619 0.10602775
0.069496863 -0.089795783 0.10616343
0.070092291 -0.090016484 0.10636698
0.070711099 -0.090163648 0.10650267
0.071328975 -0.090310797 0.10663836
0.071895391 -0.090605095 0.10690975
0.072536424 -0.090678662 0.10697758
0.073202714 -0.090678662 0.10697758
0.07384304 -0.090752259 0.10704544
0.074509099 -0.090752259 0.10704544
0.067773022 -0.089387983 0.10487418
0.06834951 -0.08968161 0.1051462
0.068996392 -0.089755028 0.10521422
0.069569834 -0.090048671 0.10548629
0.070215084 -0.090122074 0.10555428
0.070835069 -0.09026891 0.1056903
0.071479142 -0.090342298 0.10575831
0.072097488 -0.090489119 0.10589434
0.072740391 -0.090562537 0.10596237
0.073382825 -0.09063594 0.10603037
0.074024789 -0.090709358 0.1060984
0.074692488 -0.090709358 0.1060984
0.067820273 -0.089716613 0.10426269
0.068468794 -0.089789852 0.10433087
0.069092758 -0.089936346 0.10446723
0.069691464 -0.090156063 0.10467175
0.070362441 -0.090156063 0.10467175
0.071008623 -0.090229318 0.10473993
0.071654335 -0.090302557 0.10480811
0.072299577 -0.090375811 0.10487629
0.072918862 -0.090522304 0.10501266
0.073562935 -0.090595543 0.10508083
0.074232511 -0.090595543 0.10508083
0.06793838 -0.089826673 0.10344554
0.068588078 -0.089899749 0.10351388
0.069189124 -0.09011896 0.10371891
0.06986174 -0.09011896 0.10371891
0.070509791 -0.09019205 0.10378726
0.071182176 -0.09019205 0.10378726
0.071854554 -0.09019205 0.10378726
0.072476409 -0.090338215 0.10392395
0.073122837 -0.090411291 0.10399228
0.073743045 -0.090557456 0.10412897
0.074414261 -0.090557456 0.10412897
0.075085476 -0.090557456 0.10412897
0.068032876 -0.090011299 0.10269523
0.068659648 -0.090157107 0.10283226
0.069333665 -0.090157107 0.10283226
0.069983363 -0.090230018 0.10290076
0.070657149 -0.090230018 0.10290076
0.071306139 -0.090302944 0.10296927
0.071979687 -0.090302944 0.10296927
0.072653241 -0.090302944 0.10296927
0.073301308 -0.090375856 0.10303777
0.07394889 -0.090448752 0.10310628
0.074621983 -0.090448752 0.10310628
0.068778932 -0.090269968 0.10201228
0.069454126 -0.090269968 0.10201228
0.07012932 -0.090269968 0.10201228
0.070804507 -0.090269968 0.10201228
0.071454905 -0.09034273 0.10208096
0.072129861 -0.09034273 0.10208096
0.072804816 -0.09034273 0.10208096
0.073454283 -0.090415463 0.10214961
0.074129 -0.090415463 0.10214961
0.074803732 -0.090415463 0.10214961
0.068898216 -0.090384498 0.10119063
0.06957458 -0.090384498 0.10119063
0.070250943 -0.090384498 0.10119063
0.070927307 -0.090384498 0.10119063
0.071603663 -0.090384498 0.10119063
0.072254993 -0.090457097 0.10125948
0.072931126 -0.090457097 0.10125948
0.073581763 -0.090529665 0.10132831
0.074283384 -0.090457097 0.10125948
0.074959509 -0.090457097 0.10125948
0.0690175 -0.090500683 0.10036735
0.069695033 -0.090500683 0.10036735
0.070372567 -0.090500683 0.10036735
0.0710501 -0.090500683 0.10036735
0.071727633 -0.090500683 0.10036735
0.072355106 -0.090645522 0.10050537
0.073057435 -0.090573102 0.10043637
0.073709242 -0.090645522 0.10050537
0.074386306 -0.090645522 0.10050537
0.07506337 -0.090645522 0.10050537
0.06845808 -0.090618521 0.099542424
0.069136783 -0.090618521 0.099542424
0.069815487 -0.090618521 0.099542424
0.07049419 -0.090618521 0.099542424
0.071172893 -0.090618521 0.099542424
0.071826808 -0.090690777 0.099611565
0.07250528 -0.090690777 0.099611565
0.073158488 -0.090763032 0.099680766
0.073862225 -0.090690777 0.099611565
0.074514955 -0.090763032 0.099680766
0.075193189 -0.090763032 0.099680766
0.068552569 -0.09081009 0.098785147
0.069232211 -0.09081009 0.098785147
0.06993594 -0.090738028 0.098715812
0.070591494 -0.09081009 0.098785147
0.071295694 -0.090738028 0.098715812
0.071901187 -0.090954274 0.098923817
0.07258036 -0.090954274 0.098923817
0.073259532 -0.090954274 0.098923817
0.073938712 -0.090954274 0.098923817
0.074617878 -0.090954274 0.098923817
0.075271092 -0.091026351 0.098993152
0.068670683 -0.090931088 0.09795706
0.069351494 -0.090931088 0.09795706
0.070056401 -0.09085916 0.097887546
0.070713118 -0.090931088 0.09795706
0.071393929 -0.090931088 0.09795706
0.07202515 -0.091074929 0.098096073
0.072705492 -0.091074929 0.098096073
0.073385842 -0.091074929 0.098096073
0.074066184 -0.091074929 0.098096073
0.074746527 -0.091074929 0.098096073
0.068812415 -0.090981975 0.097057641
0.069518492 -0.090910226 0.096987978
0.070200935 -0.090910226 0.096987978
0.070859075 -0.090981975 0.097057641
0.071541287 -0.090981975 0.097057641
0.072198704 -0.091053739 0.097127318
0.072880685 -0.091053739 0.097127318
0.073562674 -0.091053739 0.097127318
0.074193664 -0.091197252 0.097266644
0.074875176 -0.091197252 0.097266644
0.068954147 -0.091034859 0.096156254
0.069637768 -0.091034859 0.096156254
0.070321389 -0.091034859 0.096156254
0.071005017 -0.091034859 0.096156254
0.07166408 -0.09110643 0.096226066
0.072322682 -0.091178015 0.096295893
0.073005833 -0.091178015 0.096295893
0.073714249 -0.09110643 0.096226066
0.07437215 -0.091178015 0.096295893
0.069119513 -0.091018274 0.095182836
0.069804773 -0.091018274 0.095182836
0.070490032 -0.091018274 0.095182836
0.071150973 -0.091089696 0.095252857
0.07178688 -0.091232553 0.095392853
0.072496235 -0.091161117 0.095322847
0.073181026 -0.091161117 0.095322847
0.073865823 -0.091161117 0.095322847
0.074550621 -0.091161117 0.095322847
0.068597965 -0.091004029 0.094207138
0.069284871 -0.091004029 0.094207138
0.06997177 -0.091004029 0.094207138
0.070658669 -0.091004029 0.094207138
0.071321249 -0.091075301 0.094277307
0.071934238 -0.091289058 0.094487816
0.072644986 -0.091217816 0.094417647
0.073331185 -0.091217816 0.094417647
0.073992133 -0.091289058 0.094487816
0.074678101 -0.091289058 0.094487816
0.0681426 -0.090778843 0.093018144
0.068831846 -0.090778843 0.093018144
0.069521092 -0.090778843 0.093018144
0.070186481 -0.090849921 0.093088448
0.070827305 -0.090992108 0.093229115
0.071491517 -0.091063201 0.093299463
0.07213071 -0.091205388 0.09344013
0.07281854 -0.091205388 0.09344013
0.073506378 -0.091205388 0.09344013
0.0741437 -0.091347545 0.093580768
0.068350993 -0.090627879 0.09189631
0.06904234 -0.090627879 0.09189631
0.06975732 -0.090556949 0.091825798
0.070377328 -0.090769738 0.092037305
0.071068212 -0.090769738 0.092037305
0.071710445 -0.090911582 0.092178285
0.072302625 -0.091195285 0.092460245
0.073016897 -0.091124356 0.092389777
0.073706605 -0.091124356 0.092389777
0.074371062 -0.091195285 0.092460245
0.068559378 -0.090479895 0.090771496
0.069206059 -0.090621427 0.090912819
0.069946297 -0.090479895 0.090771496
0.070568189 -0.090692177 0.090983465
0.071260944 -0.090692177 0.090983465
0.071905054 -0.090833694 0.091124788
0.072523661 -0.091045976 0.091336772
0.073240034 -0.09097521 0.091266125
0.073906831 -0.091045976 0.091336772
0.074573152 -0.091116741 0.091407448
0.069369778 -0.090617284 0.089927018
0.070064411 -0.090617284 0.089927018
0.070759036 -0.090617284 0.089927018
0.071381398 -0.090829059 0.090139478
0.07207533 -0.090829059 0.090139478
0.072720133 -0.090970248 0.090281144
0.073438391 -0.090899646 0.090210304
0.07405699 -0.091111436 0.090422809
0.06951011 -0.090685874 0.089009866
0.070206143 -0.090685874 0.089009866
0.070878319 -0.090756327 0.08908087
0.071550034 -0.090826735 0.089151859
0.072196953 -0.090967596 0.089293852
0.07286749 -0.091038018 0.089364842
0.073562354 -0.091038018 0.089364842
0.074257217 -0.091038018 0.089364842
0.069697209 -0.090615958 0.087948456
0.070395119 -0.090615958 0.087948456
0.071069174 -0.090686202 0.088019595
0.07171867 -0.090826735 0.088161916
0.072415873 -0.090826735 0.088161916
0.073113084 -0.090826735 0.088161916
0.073785499 -0.090896994 0.088233069
0.069884323 -0.090548664 0.08688435
0.070678599 -0.090268269 0.086599052
0.071212322 -0.09075895 0.087098315
0.071959578 -0.090618744 0.086955667
0.072659135 -0.090618744 0.086955667
0.073309556 -0.09075895 0.087098315
0.070211753 -0.090064436 0.085388675
0.070891201 -0.090134367 0.085460156
0.071570165 -0.090204298 0.085531667
0.072200485 -0.090414107 0.085746124
0.072878055 -0.090484008 0.085817605
0.073579714 -0.090484008 0.085817605
0.070398867 -0.090003446 0.08431828
0.071103804 -0.090003446 0.08431828
0.07176102 -0.09014298 0.0844616
0.072393216 -0.090352282 0.084676549
0.073072657 -0.090422049 0.084748223
0.073727064 -0.090561569 0.084891543
0.069424473 -0.089179501 0.082455248
0.070110708 -0.089249104 0.082527041
0.07077308 -0.089388296 0.082670689
0.071458139 -0.089457914 0.082742527
0.072095014 -0.089666709 0.082957983
0.072778672 -0.089736298 0.083029792
0.073559158 -0.089527503 0.082814336
0.074218251 -0.089666709 0.082957983
0 0 0 1 0 0 0 1 0 0 0 1 0 0 0 0 0 523 1 0 0
