ply
format ascii 1.0
comment PCL generated
element vertex 544
property float x
property float y
property float z
element camera 1
property float view_px
property float view_py
property float view_pz
property float x_axisx
property float x_axisy
property float x_axisz
property float y_axisx
property float y_axisy
property float y_axisz
property float z_axisx
property float z_axisy
property float z_axisz
property float focal
property float scalex
property float scaley
property float centerx
property float centery
property int viewportx
property int viewporty
property float k1
property float k2
end_header
0.069034405 -0.088824168 0.13174236
0.069662757 -0.088824168 0.13174236
0.070291109 -0.088824168 0.13174236
0.070919462 -0.088824168 0.13174236
0.071521141 -0.088902891 0.13180508
0.067752436 -0.089347035 0.13136092
0.068380557 -0.089347035 0.13136092
0.069008671 -0.089347035 0.13136092
0.069636784 -0.089347035 0.13136092
0.070264906 -0.089347035 0.13136092
0.070893019 -0.089347035 0.13136092
0.071494475 -0.089425579 0.1314238
0.072122365 -0.089425579 0.1314238
0.067099288 -0.089869559 0.13097982
0.067727178 -0.089869559 0.13097982
0.068380557 -0.089791179 0.13091677
0.069008671 -0.089791179 0.13091677
0.069636784 -0.089791179 0.13091677
0.070264906 -0.089791179 0.13091677
0.070893019 -0.089791179 0.13091677
0.071521141 -0.089791179 0.13091677
0.072122365 -0.089869559 0.13097982
0.072695971 -0.090026304 0.1311059
0.073350765 -0.089947909 0.13104284
0.066446617 -0.090391725 0.13059902
0.067049235 -0.090469956 0.13066225
0.067701921 -0.090391725 0.13059902
0.068355061 -0.090313539 0.13053584
0.068982944 -0.090313539 0.13053584
0.069610827 -0.090313539 0.13053584
0.070238717 -0.090313539 0.13053584
0.070866592 -0.090313539 0.13053584
0.071494475 -0.090313539 0.13053584
0.072095469 -0.090391725 0.13059902
0.072695971 -0.090469956 0.13066225
0.073296025 -0.090548158 0.13072546
0.073923208 -0.090548158 0.13072546
0.066421822 -0.090913609 0.1302186
0.067049235 -0.090913609 0.1302186
0.067676648 -0.090913609 0.1302186
0.068304069 -0.090913609 0.1302186
0.068957217 -0.090835541 0.13015521
0.069584869 -0.090835541 0.13015521
0.070212521 -0.090835541 0.13015521
0.070866592 -0.090757519 0.13009186
0.071467817 -0.090835541 0.13015521
0.072095469 -0.090835541 0.13015521
0.072668836 -0.090991646 0.13028197
0.073296025 -0.090991646 0.13028197
0.073895596 -0.091069698 0.13034534
0.065745287 -0.091513023 0.12990203
0.066397026 -0.091435134 0.12983848
0.067024209 -0.091435134 0.12983848
0.067651391 -0.091435134 0.12983848
0.068278573 -0.091435134 0.12983848
0.068931475 -0.091357261 0.12977494
0.069558896 -0.091357261 0.12977494
0.070212521 -0.091279358 0.12971139
0.070840165 -0.091279358 0.12971139
0.071441144 -0.091357261 0.12977494
0.072068557 -0.091357261 0.12977494
0.072641701 -0.091513023 0.12990203
0.073296025 -0.091435134 0.12983848
0.073895596 -0.091513023 0.12990203
0.07452254 -0.091513023 0.12990203
0.06572073 -0.092034042 0.12952241
0.066372231 -0.091956347 0.12945871
0.066999175 -0.091956347 0.12945871
0.067626126 -0.091956347 0.12945871
0.068278573 -0.091878608 0.12939501
0.068931475 -0.091800898 0.12933129
0.069558896 -0.091800898 0.12933129
0.070212521 -0.091723174 0.12926759
0.070840165 -0.091723174 0.12926759
0.071467817 -0.091723174 0.12926759
0.072068557 -0.091800898 0.12933129
0.072668836 -0.091878608 0.12939501
0.073268652 -0.091956347 0.12945871
0.073923208 -0.091878608 0.12939501
0.07452254 -0.091956347 0.12945871
0.066372231 -0.092399657 0.1290154
0.066999175 -0.092399657 0.1290154
0.067651391 -0.092322096 0.12895152
0.068278573 -0.092322096 0.12895152
0.068931475 -0.092244551 0.12888765
0.069558896 -0.092244551 0.12888765
0.070212521 -0.09216699 0.12882377
0.070866592 -0.092089459 0.12875992
0.071467817 -0.09216699 0.12882377
0.072068557 -0.092244551 0.12888765
0.072668836 -0.092322096 0.12895152
0.073296025 -0.092322096 0.12895152
0.073923208 -0.092322096 0.12895152
0.07452254 -0.092399657 0.1290154
0.066347443 -0.092920363 0.12863611
0.067024209 -0.092765585 0.12850803
0.067651391 -0.092765585 0.12850803
0.068278573 -0.092765585 0.12850803
0.068957217 -0.092610806 0.12837996
0.069584869 -0.092610806 0.12837996
0.070238717 -0.092533439 0.12831593
0.070893019 -0.092456073 0.1282519
0.071494475 -0.092533439 0.12831593
0.072095469 -0.092610806 0.12837996
0.072723113 -0.092610806 0.12837996
0.073323391 -0.092688203 0.128444
0.073923208 -0.092765585 0.12850803
0.074550383 -0.092765585 0.12850803
0.066999175 -0.093286291 0.12812877
0.067626126 -0.093286291 0.12812877
0.068278573 -0.093209058 0.12806454
0.068931475 -0.093131855 0.12800035
0.069584869 -0.093054622 0.12793614
0.070291109 -0.092822984 0.12774354
0.070945889 -0.092745766 0.12767935
0.071574479 -0.092745766 0.12767935
0.072149262 -0.092900217 0.12780775
0.072750241 -0.092977419 0.12787196
0.073350765 -0.093054622 0.12793614
0.073950805 -0.093131855 0.12800035
0.067626126 -0.093729615 0.12768544
0.068355061 -0.0934214 0.12742797
0.068982944 -0.0934214 0.12742797
0.069662757 -0.093267292 0.12729923
0.070343509 -0.093113184 0.12717049
0.070998751 -0.09303613 0.12710613
0.071654484 -0.092959076 0.12704174
0.072256871 -0.09303613 0.12710613
0.072831646 -0.093190253 0.12723486
0.07343287 -0.093267292 0.12729923
0.074006014 -0.0934214 0.12742797
0.06790401 -0.09332718 0.12653224
0.068559036 -0.093250275 0.12646769
0.069291703 -0.092942744 0.12620957
0.069974326 -0.092788965 0.1260805
0.070605494 -0.092788965 0.1260805
0.071236648 -0.092788965 0.1260805
0.071841151 -0.09286584 0.12614504
0.072364479 -0.0931734 0.12640318
0.072940193 -0.09332718 0.12653224
0.07348761 -0.093557835 0.12672584
0.074061222 -0.093711615 0.12685493
0.068839483 -0.092851654 0.12531072
0.069471814 -0.092851654 0.12531072
0.070130117 -0.092774928 0.125246
0.070762686 -0.092774928 0.125246
0.071368814 -0.092851654 0.12531072
0.07194782 -0.093005091 0.12544011
0.072525889 -0.093158528 0.12556949
0.073048733 -0.093465418 0.12582831
0.073624454 -0.09361887 0.12595771
0.070493616 -0.092150435 0.12389061
0.071103275 -0.092226982 0.12395546
0.071606711 -0.092609778 0.1242798
0.071417652 -0.091759741 0.12272564
0.072003208 -0.091912538 0.12285571
0.070423841 -0.091372713 0.12155706
0.071038872 -0.091448948 0.12162226
0.071679637 -0.091448948 0.12162226
0.072241105 -0.091677606 0.12181784
0.072961167 -0.091448948 0.12162226
0.070552491 -0.091445684 0.12077698
0.071220621 -0.091369629 0.12071164
0.071889229 -0.091293558 0.12064627
0.072505429 -0.091369629 0.12071164
0.073227838 -0.091141433 0.12051554
0.070088796 -0.091368511 0.11986421
0.070784062 -0.091216713 0.11973315
0.071428344 -0.091216713 0.11973315
0.072098814 -0.091140836 0.11966763
0.072743326 -0.091140836 0.11966763
0.073387839 -0.091140836 0.11966763
0.074059255 -0.09106493 0.1196021
0.069026425 -0.091142192 0.11881775
0.069672339 -0.091142192 0.11881775
0.070318259 -0.091142192 0.11881775
0.070964172 -0.091142192 0.11881775
0.071610093 -0.091142192 0.11881775
0.072256014 -0.091142192 0.11881775
0.072928362 -0.091066465 0.11875202
0.073574513 -0.091066465 0.11875202
0.074247569 -0.090990737 0.11868635
0.069226645 -0.090994418 0.11783411
0.069823913 -0.091145545 0.11796583
0.070522234 -0.090994418 0.11783411
0.071170017 -0.090994418 0.11783411
0.071817815 -0.090994418 0.11783411
0.072413206 -0.091145545 0.11796583
0.07306052 -0.091145545 0.11796583
0.07376118 -0.090994418 0.11783411
0.074408978 -0.090994418 0.11783411
0.07002601 -0.09100011 0.11697993
0.070675202 -0.09100011 0.11697993
0.071324393 -0.09100011 0.11697993
0.071947634 -0.091075495 0.11704594
0.072596595 -0.091075495 0.11704594
0.073245555 -0.091075495 0.11704594
0.073894516 -0.091075495 0.11704594
0.074543484 -0.091075495 0.11704594
0.069627091 -0.09070684 0.11585897
0.070228107 -0.090857297 0.11599134
0.070879176 -0.090857297 0.11599134
0.071478777 -0.091007754 0.11612374
0.072129384 -0.091007754 0.11612374
0.072753794 -0.09108299 0.11618991
0.073351286 -0.091233462 0.11632229
0.074001186 -0.091233462 0.11632229
0.074651085 -0.091233462 0.11632229
0.069173895 -0.090567023 0.11486742
0.069802284 -0.090642095 0.11493376
0.070430197 -0.090717167 0.11500014
0.071032159 -0.090867266 0.11513284
0.071633168 -0.09101741 0.11526555
0.072233245 -0.091167539 0.11539826
0.072832383 -0.091317669 0.11553097
0.07345701 -0.091392756 0.11559734
0.074107848 -0.091392756 0.11559734
0.07473179 -0.091467813 0.11566368
0.069372252 -0.090429857 0.11387321
0.070002504 -0.090504766 0.11393975
0.070607036 -0.090654537 0.11407277
0.07121063 -0.090804338 0.11420581
0.071761817 -0.091103956 0.1144719
0.072389022 -0.091178864 0.11453845
0.072989583 -0.091328636 0.11467147
0.073615611 -0.091403559 0.11473799
0.074241191 -0.091478452 0.11480451
0.074893199 -0.091478452 0.11480451
0.069570594 -0.090295345 0.11287637
0.070177697 -0.090444818 0.11300975
0.070783868 -0.090594262 0.1131431
0.07133811 -0.090893209 0.11340986
0.071941927 -0.091042683 0.11354323
0.072518855 -0.09126687 0.11374329
0.073146768 -0.091341615 0.11380999
0.073747776 -0.091491088 0.11394337
0.074374527 -0.091565818 0.11401004
0.069085352 -0.09023805 0.11194372
0.069694564 -0.090387166 0.1120774
0.070327863 -0.090461731 0.11214426
0.070884913 -0.090760022 0.11241169
0.071516581 -0.090834588 0.11247854
0.072096311 -0.091058284 0.11267908
0.072700605 -0.09120743 0.11281279
0.07330396 -0.091356561 0.11294651
0.073906377 -0.091505706 0.1130802
0.074561194 -0.091505706 0.1130802
0.068718463 -0.089811027 0.11067365
0.069208153 -0.090331852 0.11114277
0.069843322 -0.090406269 0.11120979
0.07047803 -0.090480655 0.11127682
0.071036488 -0.090778291 0.11154489
0.07164406 -0.090927079 0.11167893
0.072199225 -0.0912247 0.11194701
0.072804458 -0.091373518 0.11208105
0.073434956 -0.09144792 0.11214805
0.074064977 -0.091522306 0.11221506
0.068273671 -0.089610711 0.10960117
0.068840086 -0.089907676 0.10986991
0.069380067 -0.090278864 0.11020581
0.069992088 -0.090427339 0.11034019
0.070578143 -0.090650052 0.11054173
0.07116279 -0.090872765 0.1107433
0.071797036 -0.090947002 0.11081047
0.072353609 -0.091243953 0.11107922
0.072986215 -0.091318175 0.11114639
0.073618345 -0.091392428 0.11121358
0.074250005 -0.091466665 0.11128075
0.068394125 -0.089709684 0.10879511
0.06896171 -0.090005979 0.10906452
0.069576539 -0.090154126 0.10919921
0.07019043 -0.090302259 0.1093339
0.070753336 -0.090598539 0.10960329
0.07133963 -0.09082076 0.10980535
0.071924515 -0.091042981 0.11000741
0.072533719 -0.091191128 0.11014211
0.073142 -0.091339275 0.11027679
0.073775537 -0.091413334 0.11034414
0.068586849 -0.089588568 0.10778484
0.069156311 -0.089884207 0.10805489
0.069748454 -0.090105921 0.10825744
0.070363991 -0.090253726 0.10839248
0.070953555 -0.09047547 0.10859503
0.071541727 -0.090697169 0.10879757
0.072102986 -0.090992808 0.10906763
0.072739564 -0.091066688 0.10913514
0.073297784 -0.091362327 0.1094052
0.073906533 -0.091510147 0.10954024
0.068683207 -0.089765102 0.10704266
0.069326587 -0.089838833 0.10711032
0.069895811 -0.090133786 0.10738105
0.070512749 -0.090281278 0.10751642
0.071153782 -0.090355009 0.10758407
0.071693301 -0.090723708 0.10792249
0.072332457 -0.090797469 0.10799018
0.072945409 -0.090944946 0.10812555
0.073583394 -0.091018677 0.1081932
0.074194714 -0.091166154 0.10832858
0.068230227 -0.089575052 0.10595991
0.068851843 -0.089722201 0.10609561
0.069472544 -0.089869335 0.10623127
0.070043169 -0.090163648 0.10650267
0.070711099 -0.090163648 0.10650267
0.071328975 -0.090310797 0.10663836
0.071895391 -0.090605095 0.10690975
0.072510928 -0.090752259 0.10704544
0.073151253 -0.090825826 0.10711327
0.073765151 -0.09097296 0.10724898
0.074404299 -0.091046557 0.10731682
0.067749403 -0.089461386 0.10494219
0.06834951 -0.08968161 0.1051462
0.068972304 -0.089828432 0.10528223
0.069569834 -0.090048671 0.10548629
0.070215084 -0.090122074 0.10555428
0.070835069 -0.09026891 0.1056903
0.071479142 -0.090342298 0.10575831
0.072072223 -0.090562537 0.10596237
0.072714895 -0.09063594 0.10603037
0.073331363 -0.090782762 0.10616638
0.074024789 -0.090709358 0.1060984
0.074666291 -0.090782762 0.10616638
0.067218058 -0.089496881 0.10405815
0.067843899 -0.089643359 0.10419451
0.068444937 -0.089863107 0.10439906
0.069092758 -0.089936346 0.10446723
0.06971579 -0.090082839 0.10460359
0.070337877 -0.090229318 0.10473993
0.071033418 -0.090156063 0.10467175
0.071654335 -0.090302557 0.10480811
0.072249055 -0.090522304 0.10501266
0.072893374 -0.090595543 0.10508083
0.073562935 -0.090595543 0.10508083
0.067264825 -0.089826673 0.10344554
0.06793838 -0.089826673 0.10344554
0.068564221 -0.089972809 0.1035822
0.069189124 -0.09011896 0.10371891
0.069837414 -0.09019205 0.10378726
0.070485234 -0.090265125 0.10385559
0.071182176 -0.09019205 0.10378726
0.071804494 -0.090338215 0.10392395
0.07240063 -0.090557456 0.10412897
0.073122837 -0.090411291 0.10399228
0.073743045 -0.090557456 0.10412897
0.067381769 -0.089938357 0.10262671
0.068032876 -0.090011299 0.10269523
0.068659648 -0.090157107 0.10283226
0.069309577 -0.090230018 0.10290076
0.069983363 -0.090230018 0.10290076
0.070632592 -0.090302944 0.10296927
0.071330935 -0.090230018 0.10290076
0.071979687 -0.090302944 0.10296927
0.072627984 -0.090375856 0.10303777
0.073275812 -0.090448752 0.10310628
0.073974617 -0.090375856 0.10303777
0.067428552 -0.090269968 0.10201228
0.068103746 -0.090269968 0.10201228
0.068778932 -0.090269968 0.10201228
0.069430031 -0.09034273 0.10208096
0.07012932 -0.090269968 0.10201228
0.070779949 -0.09034273 0.10208096
0.071454905 -0.09034273 0.10208096
0.072129861 -0.09034273 0.10208096
0.072804816 -0.09034273 0.10208096
0.073454283 -0.090415463 0.10214961
0.074129 -0.090415463 0.10214961
0.067545488 -0.090384498 0.10119063
0.06822186 -0.090384498 0.10119063
0.068874359 -0.090457097 0.10125948
0.06957458 -0.090384498 0.10119063
0.070226617 -0.090457097 0.10125948
0.070902742 -0.090457097 0.10125948
0.071578868 -0.090457097 0.10125948
0.072254993 -0.090457097 0.10125948
0.072905868 -0.090529665 0.10132831
0.073607258 -0.090457097 0.10125948
0.074283384 -0.090457097 0.10125948
0.066307366 -0.090500683 0.10036735
0.066938587 -0.090645522 0.10050537
0.067662433 -0.090500683 0.10036735
0.06831634 -0.090573102 0.10043637
0.068993635 -0.090573102 0.10043637
0.069670938 -0.090573102 0.10043637
0.07034824 -0.090573102 0.10043637
0.071025535 -0.090573102 0.10043637
0.071702838 -0.090573102 0.10043637
0.072355106 -0.090645522 0.10050537
0.073057435 -0.090573102 0.10043637
0.073709242 -0.090645522 0.10050537
0.074412033 -0.090573102 0.10043637
0.075089335 -0.090573102 0.10043637
0.066330284 -0.090907529 0.099819094
0.067008048 -0.090907529 0.099819094
0.067685813 -0.090907529 0.099819094
0.068410829 -0.090763032 0.099680766
0.06908907 -0.090763032 0.099680766
0.069791399 -0.090690777 0.099611565
0.070469871 -0.090690777 0.099611565
0.071148336 -0.090690777 0.099611565
0.071802013 -0.090763032 0.099680766
0.072480246 -0.090763032 0.099680766
0.073158488 -0.090763032 0.099680766
0.073836721 -0.090763032 0.099680766
0.074514955 -0.090763032 0.099680766
0.066399045 -0.09117052 0.099131823
0.067077518 -0.09117052 0.099131823
0.06777937 -0.091098443 0.099062502
0.068434462 -0.09117052 0.099131823
0.06916064 -0.091026351 0.098993152
0.069839582 -0.091026351 0.098993152
0.070542842 -0.090954274 0.098923817
0.071197458 -0.091026351 0.098993152
0.071876399 -0.091026351 0.098993152
0.072555333 -0.091026351 0.098993152
0.073259532 -0.090954274 0.098923817
0.073913217 -0.091026351 0.098993152
0.074592151 -0.091026351 0.098993152
0.066421963 -0.091578364 0.098582581
0.067123823 -0.091506436 0.098513067
0.067826152 -0.091434523 0.098443568
0.068505324 -0.091434523 0.098443568
0.069232211 -0.091290668 0.09830457
0.06993594 -0.09121877 0.098235071
0.070640147 -0.091146842 0.098165557
0.071295694 -0.09121877 0.098235071
0.072000362 -0.091146842 0.098165557
0.072680473 -0.091146842 0.098165557
0.073360585 -0.091146842 0.098165557
0.074040696 -0.091146842 0.098165557
0.0747208 -0.091146842 0.098165557
0.066467807 -0.091914758 0.097963333
0.067193285 -0.091771245 0.097823992
0.067896314 -0.091699526 0.097754315
0.068599813 -0.091627762 0.097684637
0.069351494 -0.0914125 0.097475648
0.070056401 -0.091340736 0.09740597
0.070786089 -0.091197252 0.097266644
0.071443051 -0.091268986 0.097336307
0.072124325 -0.091268986 0.097336307
0.072805606 -0.091268986 0.097336307
0.073486887 -0.091268986 0.097336307
0.074168175 -0.091268986 0.097336307
0.074849449 -0.091268986 0.097336307
0.066559486 -0.092108667 0.097203732
0.067309052 -0.091893896 0.096994251
0.068013258 -0.091822296 0.096924409
0.068741545 -0.091679156 0.096784741
0.069470771 -0.091535971 0.096645087
0.070200935 -0.091392785 0.096505418
0.070907719 -0.091321185 0.096435577
0.071590409 -0.091321185 0.096435577
0.07227309 -0.091321185 0.096435577
0.072955772 -0.091321185 0.096435577
0.073638462 -0.091321185 0.096435577
0.067424826 -0.092018202 0.096162856
0.068176977 -0.091803923 0.095952839
0.068906911 -0.091661066 0.095812842
0.069637768 -0.091518253 0.095672861
0.070369571 -0.091375396 0.095532864
0.071053669 -0.091375396 0.095532864
0.071737759 -0.091375396 0.095532864
0.072397061 -0.091446817 0.09560284
0.073105939 -0.091375396 0.095532864
0.073790029 -0.091375396 0.095532864
0.067540601 -0.092144132 0.095329776
0.068293914 -0.091930375 0.095119283
0.069048643 -0.091716602 0.094908804
0.069780916 -0.091574088 0.094768465
0.070490032 -0.091502815 0.094698295
0.071223944 -0.091360331 0.094557986
0.071909674 -0.091360331 0.094557986
0.072595403 -0.091360331 0.094557986
0.073281132 -0.091360331 0.094557986
0.073916346 -0.091502815 0.094698295
0.068597965 -0.091489732 0.093721434
0.06930849 -0.091418669 0.093651101
0.070019484 -0.091347545 0.093580768
0.070706852 -0.091347545 0.093580768
0.071394227 -0.091347545 0.093580768
0.072057031 -0.091418669 0.093651101
0.072768964 -0.091347545 0.093580768
0.073456332 -0.091347545 0.093580768
0.0741437 -0.091347545 0.093580768
0.068119451 -0.091337115 0.092601255
0.068831846 -0.091266215 0.092530772
0.069544718 -0.091195285 0.092460245
0.070258051 -0.091124356 0.092389777
0.070923671 -0.091195285 0.092460245
0.071613155 -0.091195285 0.092460245
0.072302625 -0.091195285 0.092460245
0.072992101 -0.091195285 0.092460245
0.073681578 -0.091195285 0.092460245
0.074345797 -0.091266215 0.092530772
0.068397298 -0.09097521 0.091266125
0.069135897 -0.090833694 0.091124788
0.069851808 -0.090762943 0.091054142
0.070520476 -0.090833694 0.091124788
0.071164578 -0.09097521 0.091266125
0.071856402 -0.09097521 0.091266125
0.072523661 -0.091045976 0.091336772
0.073215246 -0.091045976 0.091336772
0.073881797 -0.091116741 0.091407448
0.069369778 -0.090617284 0.089927018
0.070064411 -0.090617284 0.089927018
0.070759036 -0.090617284 0.089927018
0.071381398 -0.090829059 0.090139478
0.072051004 -0.090899646 0.090210304
0.072671011 -0.091111436 0.090422809
0.073364004 -0.091111436 0.090422809
0.074031964 -0.091182038 0.090493605
0.070206143 -0.090685874 0.089009866
0.070902184 -0.090685874 0.089009866
0.071550034 -0.090826735 0.089151859
0.072245598 -0.090826735 0.089151859
0.072892047 -0.090967596 0.089293852
0.073562354 -0.091038018 0.089364842
0.074232183 -0.091108456 0.089435846
0.070465997 -0.090405151 0.087734967
0.071116894 -0.090545684 0.087877274
0.071766853 -0.090686202 0.088019595
0.072464526 -0.090686202 0.088019595
0.073113084 -0.090826735 0.088161916
0.073785499 -0.090896994 0.088233069
0.070725843 -0.090128064 0.086456403
0.071379319 -0.090268269 0.086599052
0.072031848 -0.090408474 0.086741701
0.072707772 -0.090478584 0.086813033
0.073358677 -0.090618744 0.086955667
0.07030531 -0.089784712 0.085102722
0.070962064 -0.089924589 0.085245684
0.07159403 -0.090134367 0.085460156
0.072200485 -0.090414107 0.085746124
0.072902381 -0.090414107 0.085746124
0.073579714 -0.090484008 0.085817605
0.070562586 -0.089515075 0.083816707
0.071198292 -0.089724377 0.084031671
0.071784876 -0.090073213 0.084389955
0.072417304 -0.090282515 0.084604919
0.073096983 -0.090352282 0.084676549
0.070819855 -0.089249104 0.082527041
0.071458139 -0.089457914 0.082742527
0.072142728 -0.089527503 0.082814336
0.072850943 -0.089527503 0.082814336
0.073559158 -0.089527503 0.082814336
0.074120015 -0.089945123 0.083245263
0 0 0 1 0 0 0 1 0 0 0 1 0 0 0 0 0 544 1 0 0
