ply
format ascii 1.0
comment PCL generated
element vertex 524
property float x
property float y
property float z
element camera 1
property float view_px
property float view_py
property float view_pz
property float x_axisx
property float x_axisy
property float x_axisz
property float y_axisx
property float y_axisy
property float y_axisz
property float z_axisx
property float z_axisy
property float z_axisz
property float focal
property float scalex
property float scaley
property float centerx
property float centery
property int viewportx
property int viewporty
property float k1
property float k2
end_header
0.068533532 -0.088430643 0.13142878
0.069163054 -0.088430643 0.13142878
0.069792576 -0.088430643 0.13142878
0.070422105 -0.088430643 0.13142878
0.071025193 -0.088509321 0.13149148
0.071627811 -0.088588044 0.13155422
0.067878753 -0.0889543 0.13104652
0.068508044 -0.0889543 0.13104652
0.069137327 -0.0889543 0.13104652
0.069766618 -0.0889543 0.13104652
0.070395909 -0.0889543 0.13104652
0.070998751 -0.089032859 0.1311094
0.071601145 -0.089111388 0.13117227
0.072203062 -0.089189947 0.13123517
0.072831646 -0.089189947 0.13123517
0.067199402 -0.089556038 0.13072763
0.067828223 -0.089556038 0.13072763
0.068482541 -0.089477658 0.13066459
0.069111593 -0.089477658 0.13066459
0.069740646 -0.089477658 0.13066459
0.070369706 -0.089477658 0.13066459
0.070998751 -0.089477658 0.13066459
0.071601145 -0.089556038 0.13072763
0.072203062 -0.089634418 0.13079068
0.072777376 -0.089791179 0.13091677
0.073405497 -0.089791179 0.13091677
0.066520996 -0.090157107 0.13040942
0.067149349 -0.090157107 0.13040942
0.067802958 -0.090078905 0.13034621
0.068431549 -0.090078905 0.13034621
0.069085866 -0.090000674 0.130283
0.069714688 -0.090000674 0.130283
0.070343509 -0.090000674 0.130283
0.070972323 -0.090000674 0.130283
0.071547814 -0.090157107 0.13040942
0.072176166 -0.090157107 0.13040942
0.072777376 -0.090235338 0.13047263
0.073378131 -0.090313539 0.13053584
0.073978417 -0.090391725 0.13059902
0.066496201 -0.090679482 0.13002849
0.067124315 -0.090679482 0.13002849
0.067752436 -0.090679482 0.13002849
0.068406053 -0.090601414 0.1299651
0.069008671 -0.090679482 0.13002849
0.069662757 -0.090601414 0.1299651
0.070291109 -0.090601414 0.1299651
0.070893019 -0.090679482 0.13002849
0.071521141 -0.090679482 0.13002849
0.072122365 -0.090757519 0.13009186
0.072723113 -0.090835541 0.13015521
0.073350765 -0.090835541 0.13015521
0.073950805 -0.090913609 0.1302186
0.065843523 -0.091201499 0.12964788
0.066471405 -0.091201499 0.12964788
0.067099288 -0.091201499 0.12964788
0.067752436 -0.091123626 0.12958434
0.068355061 -0.091201499 0.12964788
0.069008671 -0.091123626 0.12958434
0.069636784 -0.091123626 0.12958434
0.070264906 -0.091123626 0.12958434
0.070866592 -0.091201499 0.12964788
0.071494475 -0.091201499 0.12964788
0.072095469 -0.091279358 0.12971139
0.072695971 -0.091357261 0.12977494
0.073323391 -0.091357261 0.12977494
0.073950805 -0.091357261 0.12977494
0.074578218 -0.091357261 0.12977494
0.065818965 -0.091723174 0.12926759
0.066446617 -0.091723174 0.12926759
0.067099288 -0.091645479 0.1292039
0.067701921 -0.091723174 0.12926759
0.068355061 -0.091645479 0.1292039
0.068957217 -0.091723174 0.12926759
0.069610827 -0.091645479 0.1292039
0.070238717 -0.091645479 0.1292039
0.070840165 -0.091723174 0.12926759
0.071467817 -0.091723174 0.12926759
0.072068557 -0.091800898 0.12933129
0.072695971 -0.091800898 0.12933129
0.073323391 -0.091800898 0.12933129
0.073950805 -0.091800898 0.12933129
0.074550383 -0.091878608 0.12939501
0.065794408 -0.092244551 0.12888765
0.066421822 -0.092244551 0.12888765
0.067074262 -0.09216699 0.12882377
0.067701921 -0.09216699 0.12882377
0.068304069 -0.092244551 0.12888765
0.068982944 -0.092089459 0.12875992
0.069584869 -0.09216699 0.12882377
0.070238717 -0.092089459 0.12875992
0.070840165 -0.09216699 0.12882377
0.071467817 -0.09216699 0.12882377
0.072095469 -0.09216699 0.12882377
0.072723113 -0.09216699 0.12882377
0.073323391 -0.092244551 0.12888765
0.073950805 -0.092244551 0.12888765
0.074578218 -0.092244551 0.12888765
0.066421822 -0.092688203 0.128444
0.067049235 -0.092688203 0.128444
0.067701921 -0.092610806 0.12837996
0.068329573 -0.092610806 0.12837996
0.068982944 -0.092533439 0.12831593
0.069610827 -0.092533439 0.12831593
0.070238717 -0.092533439 0.12831593
0.070866592 -0.092533439 0.12831593
0.071494475 -0.092533439 0.12831593
0.072149262 -0.092456073 0.1282519
0.072750241 -0.092533439 0.12831593
0.073350765 -0.092610806 0.12837996
0.073978417 -0.092610806 0.12837996
0.074578218 -0.092688203 0.128444
0.067049235 -0.093131855 0.12800035
0.067727178 -0.092977419 0.12787196
0.068355061 -0.092977419 0.12787196
0.069008671 -0.092900217 0.12780775
0.069662757 -0.092822984 0.12774354
0.070264906 -0.092900217 0.12780775
0.070893019 -0.092900217 0.12780775
0.071547814 -0.092822984 0.12774354
0.072176166 -0.092822984 0.12774354
0.072750241 -0.092977419 0.12787196
0.073378131 -0.092977419 0.12787196
0.074006014 -0.092977419 0.12787196
0.067074262 -0.093498439 0.12749232
0.067701921 -0.093498439 0.12749232
0.068355061 -0.0934214 0.12742797
0.069008671 -0.093344361 0.12736361
0.069662757 -0.093267292 0.12729923
0.070291109 -0.093267292 0.12729923
0.070945889 -0.093190253 0.12723486
0.071547814 -0.093267292 0.12729923
0.072229974 -0.093113184 0.12717049
0.072831646 -0.093190253 0.12723486
0.07343287 -0.093267292 0.12729923
0.073978417 -0.093498439 0.12749232
0.067878753 -0.093404055 0.12659676
0.068482541 -0.093480945 0.12666132
0.069188789 -0.093250275 0.12646769
0.069922395 -0.092942744 0.12620957
0.070526898 -0.09301962 0.12627411
0.071183786 -0.092942744 0.12620957
0.071734481 -0.0931734 0.12640318
0.072256871 -0.093480945 0.12666132
0.072913058 -0.093404055 0.12659676
0.073460236 -0.093634725 0.12679039
0.074061222 -0.093711615 0.12685493
0.068737507 -0.093158528 0.12556949
0.06942036 -0.093005091 0.12544011
0.070026256 -0.093081817 0.12550482
0.070684098 -0.093005091 0.12544011
0.071289517 -0.093081817 0.12550482
0.071894489 -0.093158528 0.12556949
0.072472081 -0.093311965 0.12569889
0.072940193 -0.093772322 0.1260871
0.073542349 -0.093849018 0.1261518
0.069119945 -0.092456669 0.12415007
0.069754846 -0.092456669 0.12415007
0.070311867 -0.092686325 0.12434466
0.070893683 -0.09283945 0.12447439
0.071500987 -0.092915997 0.12453926
0.072107822 -0.092992559 0.12460414
0.073130138 -0.093681574 0.1251879
0.070706874 -0.090989307 0.12038481
0.071967825 -0.091065377 0.12045018
0.07266403 -0.090913266 0.12031946
0.069672339 -0.090685472 0.11927447
0.070267268 -0.09083724 0.11940552
0.070938446 -0.090761334 0.11933997
0.071584128 -0.090761334 0.11933997
0.072229818 -0.090761334 0.11933997
0.072901927 -0.090685472 0.11927447
0.07354784 -0.090685472 0.11927447
0.069176592 -0.090687811 0.11842357
0.069798648 -0.090763554 0.11848927
0.070445739 -0.090763554 0.11848927
0.07104136 -0.090915009 0.11862066
0.071687981 -0.090915009 0.11862066
0.072308414 -0.090990737 0.11868635
0.072954789 -0.090990737 0.11868635
0.073681176 -0.090763554 0.11848927
0.069451898 -0.090314358 0.1172414
0.070000745 -0.090616614 0.11750482
0.07062421 -0.090692177 0.1175707
0.071272932 -0.090692177 0.1175707
0.071869738 -0.09084329 0.11770241
0.072518006 -0.09084329 0.11770241
0.073166259 -0.09084329 0.11770241
0.073841184 -0.090767741 0.11763655
0.069049932 -0.090019941 0.11612161
0.069602057 -0.090321541 0.11638571
0.070177577 -0.090547711 0.11658378
0.070802689 -0.090623111 0.11664979
0.071427315 -0.09069851 0.11671583
0.072051495 -0.09077391 0.11678185
0.072648995 -0.090924695 0.11691388
0.073271982 -0.09100011 0.11697993
0.073921181 -0.09100011 0.11697993
0.069124311 -0.090255469 0.11546184
0.069727205 -0.090405911 0.11559419
0.070329152 -0.090556368 0.11572659
0.070904672 -0.090782076 0.11592516
0.071530238 -0.090857297 0.11599134
0.072129384 -0.091007754 0.11612374
0.072753794 -0.09108299 0.11618991
0.073404156 -0.09108299 0.11618991
0.074054524 -0.09108299 0.11618991
0.074704893 -0.09108299 0.11618991
0.069273077 -0.090266749 0.114602
0.069877364 -0.090416893 0.11473471
0.070455462 -0.090642095 0.11493376
0.071057647 -0.090792209 0.11506648
0.071633168 -0.09101741 0.11526555
0.072285175 -0.09101741 0.11526555
0.072858579 -0.091242626 0.11546463
0.073509879 -0.091242626 0.11546463
0.074134521 -0.091317669 0.11553097
0.068790644 -0.090205148 0.11367366
0.069421835 -0.090280041 0.11374018
0.070002504 -0.090504766 0.11393975
0.070607036 -0.090654537 0.11407277
0.07121063 -0.090804338 0.11420581
0.071761817 -0.091103956 0.1144719
0.072389022 -0.091178864 0.11453845
0.072989583 -0.091328636 0.11467147
0.073615611 -0.091403559 0.11473799
0.074241191 -0.091478452 0.11480451
0.068353578 -0.089996397 0.11260961
0.068962559 -0.090145871 0.11274299
0.069545805 -0.090370074 0.11294305
0.07015267 -0.090519547 0.11307642
0.070783868 -0.090594262 0.1131431
0.07133811 -0.090893209 0.11340986
0.0719162 -0.091117397 0.11360991
0.072518855 -0.09126687 0.11374329
0.073094368 -0.091491088 0.11394337
0.073694907 -0.091640562 0.11407673
0.074347854 -0.091640562 0.11407673
0.068426557 -0.09023805 0.11194372
0.069036238 -0.090387166 0.1120774
0.069669768 -0.090461731 0.11214426
0.070302837 -0.090536296 0.11221112
0.070884913 -0.090760022 0.11241169
0.071491078 -0.090909168 0.1125454
0.072070576 -0.091132864 0.11274594
0.072622709 -0.091431141 0.11301337
0.073225372 -0.091580257 0.11314705
0.07382708 -0.091729403 0.11328076
0.074481197 -0.091729403 0.11328076
0.067936398 -0.090183049 0.11100873
0.068523854 -0.090406269 0.11120979
0.069159031 -0.090480655 0.11127682
0.069768943 -0.090629473 0.11141086
0.070402943 -0.09070389 0.11147788
0.07101123 -0.090852663 0.1116119
0.07164406 -0.090927079 0.11167893
0.072199225 -0.0912247 0.11194701
0.072804458 -0.091373518 0.11208105
0.07340876 -0.091522306 0.11221506
0.074012108 -0.091671109 0.11234911
0.068008669 -0.090427339 0.11034019
0.06859684 -0.090650052 0.11054173
0.069257274 -0.090650052 0.11054173
0.069868118 -0.090798512 0.11067611
0.07052809 -0.090798512 0.11067611
0.071137533 -0.090947002 0.11081047
0.071746044 -0.091095477 0.11094485
0.072327882 -0.091318175 0.11114639
0.072960243 -0.091392428 0.11121358
0.073513545 -0.091689393 0.11148232
0.068129122 -0.09052448 0.10953596
0.068767115 -0.090598539 0.10960329
0.069429189 -0.090598539 0.10960329
0.070041671 -0.090746686 0.10973799
0.070678249 -0.09082076 0.10980535
0.071263842 -0.091042981 0.11000741
0.071873523 -0.091191128 0.11014211
0.072482258 -0.091339275 0.11027679
0.073142 -0.091339275 0.11027679
0.068937384 -0.09054935 0.10866253
0.069601104 -0.09054935 0.10866253
0.070215225 -0.090697169 0.10879757
0.070853442 -0.090771094 0.10886508
0.071440674 -0.090992808 0.10906763
0.072077498 -0.091066688 0.10913514
0.07271383 -0.091140628 0.10920265
0.073349714 -0.091214508 0.10927017
0.073985122 -0.091288432 0.10933769
0.067872375 -0.090207532 0.10744873
0.069083333 -0.090576246 0.10778713
0.069773018 -0.090502486 0.10771945
0.070388779 -0.090649977 0.10785481
0.071028642 -0.090723708 0.10792249
0.071617506 -0.090944946 0.10812555
0.072255969 -0.091018677 0.1081932
0.072945409 -0.090944946 0.10812555
0.073557429 -0.091092438 0.1082609
0.068610936 -0.090457946 0.10677405
0.069277935 -0.090457946 0.10677405
0.069920376 -0.090531513 0.10684189
0.070587136 -0.090531513 0.10684189
0.071228862 -0.090605095 0.10690975
0.071844868 -0.090752259 0.10704544
0.072485432 -0.090825826 0.10711327
0.073151253 -0.090825826 0.10711327
0.073817074 -0.090825826 0.10711327
0.068230227 -0.090048671 0.10548629
0.068827756 -0.09026891 0.1056903
0.069496863 -0.09026891 0.1056903
0.070141405 -0.090342298 0.10575831
0.07076069 -0.090489119 0.10589434
0.071404055 -0.090562537 0.10596237
0.072046965 -0.09063594 0.10603037
0.072714895 -0.09063594 0.10603037
0.074024789 -0.090709358 0.1060984
0.068468794 -0.089789852 0.10433087
0.069044575 -0.090082839 0.10460359
0.069667138 -0.090229318 0.10473993
0.070337877 -0.090229318 0.10473993
0.070983827 -0.090302557 0.10480811
0.071579248 -0.090522304 0.10501266
0.072223797 -0.090595543 0.10508083
0.072893374 -0.090595543 0.10508083
0.073537201 -0.090668797 0.10514902
0.068659648 -0.089680508 0.10330886
0.069285482 -0.089826673 0.10344554
0.069910392 -0.089972809 0.1035822
0.070509791 -0.09019205 0.10378726
0.071157381 -0.090265125 0.10385559
0.071829528 -0.090265125 0.10385559
0.072476409 -0.090338215 0.10392395
0.073173828 -0.090265125 0.10385559
0.068174608 -0.089573801 0.10228418
0.068778932 -0.089792535 0.10248971
0.069381848 -0.090011299 0.10269523
0.070056342 -0.090011299 0.10269523
0.070730828 -0.090011299 0.10269523
0.071330935 -0.090230018 0.10290076
0.072004721 -0.090230018 0.10290076
0.072678514 -0.090230018 0.10290076
0.0733523 -0.090230018 0.10290076
0.074026078 -0.090230018 0.10290076
0.067568876 -0.089833498 0.10160024
0.06822186 -0.089906231 0.10166889
0.068898216 -0.089906231 0.10166889
0.069550484 -0.089979008 0.10173757
0.070202291 -0.090051726 0.10180625
0.070878185 -0.090051726 0.10180625
0.071529284 -0.090124488 0.10187493
0.07220494 -0.090124488 0.10187493
0.072830088 -0.090269968 0.10201228
0.073505282 -0.090269968 0.10201228
0.074180469 -0.090269968 0.10201228
0.067685813 -0.089949012 0.10077761
0.068339966 -0.090021595 0.10084644
0.0690175 -0.090021595 0.10084644
0.069670938 -0.090094179 0.1009153
0.070323914 -0.090166762 0.10098413
0.071025535 -0.090094179 0.1009153
0.071678042 -0.090166762 0.10098413
0.072305053 -0.09031193 0.10112181
0.072956391 -0.090384498 0.10119063
0.073632762 -0.090384498 0.10119063
0.074309118 -0.090384498 0.10119063
0.067100666 -0.090138614 0.10002233
0.067802764 -0.09006618 0.099953324
0.06845808 -0.090138614 0.10002233
0.069112927 -0.090211019 0.10009132
0.069791399 -0.090211019 0.10009132
0.070469871 -0.090211019 0.10009132
0.071123779 -0.090283453 0.10016035
0.071752422 -0.090428278 0.10029835
0.072430186 -0.090428278 0.10029835
0.073107958 -0.090428278 0.10029835
0.073760234 -0.090500683 0.10036735
0.074463494 -0.090428278 0.10029835
0.067193285 -0.090329513 0.099265724
0.067896314 -0.090257287 0.099196553
0.068552569 -0.090329513 0.099265724
0.069232211 -0.090329513 0.099265724
0.06986367 -0.090474024 0.099404067
0.070591494 -0.090329513 0.099265724
0.071222015 -0.090474024 0.099404067
0.071876399 -0.090546265 0.099473238
0.072555333 -0.090546265 0.099473238
0.07320901 -0.090618521 0.099542424
0.073862225 -0.090690777 0.099611565
0.07454069 -0.090690777 0.099611565
0.067216434 -0.090738028 0.098715812
0.067919701 -0.090665936 0.098646462
0.068599813 -0.090665936 0.098646462
0.069279924 -0.090665936 0.098646462
0.069960035 -0.090665936 0.098646462
0.070640147 -0.090665936 0.098646462
0.071320251 -0.090665936 0.098646462
0.071975566 -0.090738028 0.098715812
0.072655439 -0.090738028 0.098715812
0.07333532 -0.090738028 0.098715812
0.073989704 -0.09081009 0.098785147
0.074695066 -0.090738028 0.098715812
0.067309052 -0.090931088 0.09795706
0.067989863 -0.090931088 0.09795706
0.068670683 -0.090931088 0.09795706
0.069375351 -0.09085916 0.097887546
0.070056401 -0.09085916 0.097887546
0.070737444 -0.09085916 0.097887546
0.071418494 -0.09085916 0.097887546
0.072099537 -0.09085916 0.097887546
0.072780579 -0.09085916 0.097887546
0.073436365 -0.090931088 0.09795706
0.074066184 -0.091074929 0.098096073
0.074797988 -0.090931088 0.09795706
0.068060026 -0.091197252 0.097266644
0.068741545 -0.091197252 0.097266644
0.069470771 -0.091053739 0.097127318
0.070176847 -0.090981975 0.097057641
0.070859075 -0.090981975 0.097057641
0.071541287 -0.090981975 0.097057641
0.072198704 -0.091053739 0.097127318
0.072880685 -0.091053739 0.097127318
0.073562674 -0.091053739 0.097127318
0.074244663 -0.091053739 0.097127318
0.067494288 -0.091321185 0.096435577
0.068223752 -0.091178015 0.096295893
0.068906911 -0.091178015 0.096295893
0.069590062 -0.091178015 0.096295893
0.070321389 -0.091034859 0.096156254
0.070980698 -0.09110643 0.096226066
0.07166408 -0.09110643 0.096226066
0.072322682 -0.091178015 0.096295893
0.073005833 -0.091178015 0.096295893
0.073688991 -0.091178015 0.096295893
0.07437215 -0.091178015 0.096295893
0.067633212 -0.091375396 0.095532864
0.068317302 -0.091375396 0.095532864
0.069048643 -0.091232553 0.095392853
0.069733202 -0.091232553 0.095392853
0.07044185 -0.091161117 0.095322847
0.071126647 -0.091161117 0.095322847
0.071811438 -0.091161117 0.095322847
0.072471432 -0.091232553 0.095392853
0.073155992 -0.091232553 0.095392853
0.073840559 -0.091232553 0.095392853
0.074474126 -0.091375396 0.095532864
0.067748986 -0.091502815 0.094698295
0.068434246 -0.091502815 0.094698295
0.069190376 -0.091289058 0.094487816
0.069900192 -0.091217816 0.094417647
0.070586391 -0.091217816 0.094417647
0.071223944 -0.091360331 0.094557986
0.071934238 -0.091289058 0.094487816
0.072595403 -0.091360331 0.094557986
0.073306166 -0.091289058 0.094487816
0.073966861 -0.091360331 0.094557986
0.067911066 -0.091489732 0.093721434
0.068621352 -0.091418669 0.093651101
0.069379352 -0.091205388 0.09344013
0.07006719 -0.091205388 0.09344013
0.070755027 -0.091205388 0.09344013
0.071394227 -0.091347545 0.093580768
0.072057031 -0.091418669 0.093651101
0.072768964 -0.091347545 0.093580768
0.073431298 -0.091418669 0.093651101
0.074118435 -0.091418669 0.093651101
0.068073146 -0.091478974 0.092742249
0.068808459 -0.091337115 0.092601255
0.069544718 -0.091195285 0.092460245
0.070234194 -0.091195285 0.092460245
0.070947759 -0.091124356 0.092389777
0.071637474 -0.091124356 0.092389777
0.072278067 -0.091266215 0.092530772
0.072992101 -0.091195285 0.092460245
0.073656552 -0.091266215 0.092530772
0.07432054 -0.091337115 0.092601255
0.068281531 -0.091329008 0.091619417
0.06904234 -0.091116741 0.091407448
0.06975732 -0.091045976 0.091336772
0.070448905 -0.091045976 0.091336772
0.07114049 -0.091045976 0.091336772
0.071856402 -0.09097521 0.091266125
0.072499096 -0.091116741 0.091407448
0.073215246 -0.091045976 0.091336772
0.073881797 -0.091116741 0.091407448
0.068443611 -0.091323212 0.09063527
0.069182672 -0.091182038 0.090493605
0.069946297 -0.090970248 0.090281144
0.070639752 -0.090970248 0.090281144
0.07135731 -0.090899646 0.090210304
0.072026677 -0.090970248 0.090281144
0.072671011 -0.091111436 0.090422809
0.073413588 -0.090970248 0.090281144
0.074031964 -0.091182038 0.090493605
0.069369778 -0.091108456 0.089435846
0.070111655 -0.090967596 0.089293852
0.070806749 -0.090967596 0.089293852
0.071477763 -0.091038018 0.089364842
0.072196953 -0.090967596 0.089293852
0.07286749 -0.091038018 0.089364842
0.073562354 -0.091038018 0.089364842
0.074232183 -0.091108456 0.089435846
0.070324257 -0.090826735 0.088161916
0.071069174 -0.090686202 0.088019595
0.07171867 -0.090826735 0.088161916
0.072391555 -0.090896994 0.088233069
0.073088527 -0.090896994 0.088233069
0.070607729 -0.090478584 0.086813033
0.071307741 -0.090478584 0.086813033
0.071983665 -0.090548664 0.08688435
0.072683454 -0.090548664 0.08688435
0.073358677 -0.090618744 0.086955667
0.07091482 -0.090064436 0.085388675
0.07159403 -0.090134367 0.085460156
0.072200485 -0.090414107 0.085746124
0.072902381 -0.090414107 0.085746124
0.073579714 -0.090484008 0.085817605
0.071174666 -0.089794159 0.084103331
0.07180874 -0.090003446 0.08431828
0.072417304 -0.090282515 0.084604919
0.073072657 -0.090422049 0.084748223
0.070226476 -0.088901088 0.082167953
0.070866637 -0.089109898 0.082383409
0.071529008 -0.089249104 0.082527041
0.072190441 -0.089388296 0.082670689
0.07287503 -0.089457914 0.082742527
0.073559158 -0.089527503 0.082814336
0 0 0 1 0 0 0 1 0 0 0 1 0 0 0 0 0 524 1 0 0
