ply
format ascii 1.0
comment PCL generated
element vertex 570
property float x
property float y
property float z
element camera 1
property float view_px
property float view_py
property float view_pz
property float x_axisx
property float x_axisy
property float x_axisz
property float y_axisx
property float y_axisy
property float y_axisz
property float z_axisx
property float z_axisy
property float z_axisz
property float focal
property float scalex
property float scaley
property float centerx
property float centery
property int viewportx
property int viewporty
property float k1
property float k2
end_header
0.067777701 -0.089268491 0.13129804
0.068406053 -0.089268491 0.13129804
0.069034405 -0.089268491 0.13129804
0.069688715 -0.089189947 0.13123517
0.070291109 -0.089268491 0.13129804
0.070919462 -0.089268491 0.13129804
0.071521141 -0.089347035 0.13136092
0.072122365 -0.089425579 0.1314238
0.067124315 -0.089791179 0.13091677
0.067727178 -0.089869559 0.13097982
0.068380557 -0.089791179 0.13091677
0.069034405 -0.089712799 0.13085373
0.069662757 -0.089712799 0.13085373
0.070291109 -0.089712799 0.13085373
0.070866592 -0.089869559 0.13097982
0.071494475 -0.089869559 0.13097982
0.072095469 -0.089947909 0.13104284
0.072668836 -0.090104669 0.13116893
0.066421822 -0.090469956 0.13066225
0.067074262 -0.090391725 0.13059902
0.067701921 -0.090391725 0.13059902
0.068355061 -0.090313539 0.13053584
0.068982944 -0.090313539 0.13053584
0.069636784 -0.090235338 0.13047263
0.070264906 -0.090235338 0.13047263
0.070866592 -0.090313539 0.13053584
0.071467817 -0.090391725 0.13059902
0.072095469 -0.090391725 0.13059902
0.072668836 -0.090548158 0.13072546
0.073268652 -0.090626389 0.13078867
0.073867999 -0.09070459 0.13085188
0.066421822 -0.090913609 0.1302186
0.067049235 -0.090913609 0.1302186
0.067701921 -0.090835541 0.13015521
0.068329573 -0.090835541 0.13015521
0.068982944 -0.090757519 0.13009186
0.069584869 -0.090835541 0.13015521
0.070264906 -0.090679482 0.13002849
0.070866592 -0.090757519 0.13009186
0.071441144 -0.090913609 0.1302186
0.072068557 -0.090913609 0.1302186
0.072641701 -0.091069698 0.13034534
0.073268652 -0.091069698 0.13034534
0.073867999 -0.091147751 0.13040872
0.066397026 -0.091435134 0.12983848
0.067024209 -0.091435134 0.12983848
0.067651391 -0.091435134 0.12983848
0.068304069 -0.091357261 0.12977494
0.068957217 -0.091279358 0.12971139
0.069584869 -0.091279358 0.12971139
0.070212521 -0.091279358 0.12971139
0.070813723 -0.091357261 0.12977494
0.071467817 -0.091279358 0.12971139
0.072041661 -0.091435134 0.12983848
0.072641701 -0.091513023 0.12990203
0.073268652 -0.091513023 0.12990203
0.073867999 -0.091590896 0.12996557
0.074466862 -0.091668785 0.13002911
0.065745287 -0.091956347 0.12945871
0.066372231 -0.091956347 0.12945871
0.066999175 -0.091956347 0.12945871
0.067626126 -0.091956347 0.12945871
0.068278573 -0.091878608 0.12939501
0.068931475 -0.091800898 0.12933129
0.069558896 -0.091800898 0.12933129
0.070212521 -0.091723174 0.12926759
0.070840165 -0.091723174 0.12926759
0.071441144 -0.091800898 0.12933129
0.072068557 -0.091800898 0.12933129
0.072641701 -0.091956347 0.12945871
0.073268652 -0.091956347 0.12945871
0.073895596 -0.091956347 0.12945871
0.074466862 -0.092111781 0.12958613
0.066372231 -0.092399657 0.1290154
0.067024209 -0.092322096 0.12895152
0.067651391 -0.092322096 0.12895152
0.068278573 -0.092322096 0.12895152
0.068931475 -0.092244551 0.12888765
0.069584869 -0.09216699 0.12882377
0.070212521 -0.09216699 0.12882377
0.070840165 -0.09216699 0.12882377
0.071441144 -0.092244551 0.12888765
0.072068557 -0.092244551 0.12888765
0.072641701 -0.092399657 0.1290154
0.073296025 -0.092322096 0.12895152
0.073895596 -0.092399657 0.1290154
0.074494705 -0.092477202 0.12907927
0.066372231 -0.092842981 0.12857208
0.067049235 -0.092688203 0.128444
0.067676648 -0.092688203 0.128444
0.068329573 -0.092610806 0.12837996
0.068957217 -0.092610806 0.12837996
0.069610827 -0.092533439 0.12831593
0.070264906 -0.092456073 0.1282519
0.070866592 -0.092533439 0.12831593
0.071494475 -0.092533439 0.12831593
0.072095469 -0.092610806 0.12837996
0.072668836 -0.092765585 0.12850803
0.073296025 -0.092765585 0.12850803
0.073923208 -0.092765585 0.12850803
0.07452254 -0.092842981 0.12857208
0.067024209 -0.093209058 0.12806454
0.067727178 -0.092977419 0.12787196
0.068380557 -0.092900217 0.12780775
0.069034405 -0.092822984 0.12774354
0.069662757 -0.092822984 0.12774354
0.070343509 -0.092668533 0.12761512
0.070972323 -0.092668533 0.12761512
0.071574479 -0.092745766 0.12767935
0.072149262 -0.092900217 0.12780775
0.072723113 -0.093054622 0.12793614
0.073296025 -0.093209058 0.12806454
0.073895596 -0.093286291 0.12812877
0.067074262 -0.093498439 0.12749232
0.067752436 -0.093344361 0.12736361
0.068406053 -0.093267292 0.12729923
0.069034405 -0.093267292 0.12729923
0.069714688 -0.093113184 0.12717049
0.070343509 -0.093113184 0.12717049
0.070972323 -0.093113184 0.12717049
0.071601145 -0.093113184 0.12717049
0.072203062 -0.093190253 0.12723486
0.072777376 -0.093344361 0.12736361
0.073350765 -0.093498439 0.12749232
0.068030313 -0.092942744 0.12620957
0.068559036 -0.093250275 0.12646769
0.069265977 -0.09301962 0.12627411
0.070000298 -0.09271206 0.12601596
0.070631698 -0.09271206 0.12601596
0.071289517 -0.092635185 0.12595144
0.071814477 -0.092942744 0.12620957
0.072337575 -0.093250275 0.12646769
0.072885916 -0.093480945 0.12666132
0.07348761 -0.093557835 0.12672584
0.068890475 -0.092698216 0.1251813
0.069549009 -0.092621475 0.1251166
0.070208006 -0.092544779 0.12505192
0.070841283 -0.092544779 0.12505192
0.071448117 -0.092621475 0.1251166
0.072027817 -0.092774928 0.125246
0.073733933 -0.093311965 0.12569889
0.070545547 -0.091997325 0.12376086
0.071103275 -0.092226982 0.12395546
0.071712442 -0.092303559 0.12402034
0.072427832 -0.092073873 0.12382573
0.070960984 -0.091225013 0.12227044
0.071548648 -0.09137781 0.12240049
0.07221467 -0.091301396 0.12233546
0.072827831 -0.09137781 0.12240049
0.070526764 -0.091067806 0.12129626
0.071168698 -0.091067806 0.12129626
0.071784437 -0.09114404 0.12136146
0.072399698 -0.09122026 0.12142666
0.073041171 -0.09122026 0.12142666
0.070037805 -0.091065377 0.12045018
0.070655413 -0.091141433 0.12051554
0.071298517 -0.091141433 0.12051554
0.071889229 -0.091293558 0.12064627
0.072531864 -0.091293558 0.12064627
0.068702824 -0.089698836 0.1184226
0.069176592 -0.090230092 0.11888129
0.069722869 -0.090533674 0.11914341
0.070292771 -0.090761334 0.11933997
0.07086125 -0.090989038 0.11953658
0.071480274 -0.09106493 0.1196021
0.072098814 -0.091140836 0.11966763
0.072716892 -0.091216713 0.11973315
0.073334508 -0.09129259 0.11979868
0.067818426 -0.088870361 0.11684695
0.068373136 -0.089173257 0.1171097
0.069326751 -0.09023346 0.11802942
0.069823913 -0.090687811 0.11842357
0.070445739 -0.090763554 0.11848927
0.071067095 -0.090839282 0.11855495
0.071662024 -0.090990737 0.11868635
0.072282217 -0.091066465 0.11875202
0.072875492 -0.091217905 0.11888342
0.073521182 -0.091217905 0.11888342
0.07413996 -0.091293648 0.11894912
0.067261845 -0.089029804 0.1161218
0.067842759 -0.089256495 0.11631936
0.068422258 -0.089483172 0.11651693
0.068925969 -0.08993654 0.1169121
0.069451898 -0.090314358 0.1172414
0.07002601 -0.090541065 0.11743897
0.070598722 -0.090767741 0.11763655
0.071221478 -0.09084329 0.11770241
0.071869738 -0.09084329 0.11770241
0.072465606 -0.090994418 0.11783411
0.073034085 -0.091221109 0.11803171
0.073681176 -0.091221109 0.11803171
0.074328266 -0.091221109 0.11803171
0.074948221 -0.091296673 0.11809756
0.067382298 -0.089115188 0.11532933
0.067940056 -0.089416757 0.1155934
0.068495929 -0.089718357 0.1158575
0.069074728 -0.089944541 0.11605556
0.069627091 -0.090246126 0.11631969
0.070228107 -0.090396911 0.11645171
0.070802689 -0.090623111 0.11664979
0.071427315 -0.09069851 0.11671583
0.072051495 -0.09077391 0.11678185
0.072596595 -0.091075495 0.11704594
0.073219113 -0.091150895 0.11711198
0.073867843 -0.091150895 0.11711198
0.074516572 -0.091150895 0.11711198
0.075138167 -0.091226295 0.11717799
0.069149107 -0.090180218 0.11539564
0.069727205 -0.090405911 0.11559419
0.070329152 -0.090556368 0.11572659
0.070930168 -0.09070684 0.11585897
0.071530238 -0.090857297 0.11599134
0.072129384 -0.091007754 0.11612374
0.072753794 -0.09108299 0.11618991
0.073351286 -0.091233462 0.11632229
0.074001186 -0.091233462 0.11632229
0.074651085 -0.091233462 0.11632229
0.068716966 -0.089966491 0.11433658
0.069322661 -0.090116635 0.11446927
0.069877364 -0.090416893 0.11473471
0.070480719 -0.090567023 0.11486742
0.071057647 -0.090792209 0.11506648
0.071684629 -0.090867266 0.11513284
0.072285175 -0.09101741 0.11526555
0.072858579 -0.091242626 0.11546463
0.073483452 -0.091317669 0.11553097
0.074107848 -0.091392756 0.11559734
0.074758686 -0.091392756 0.11559734
0.067671396 -0.089605942 0.11314148
0.068256281 -0.089830667 0.11334105
0.068864316 -0.089980468 0.1134741
0.069446631 -0.090205148 0.11367366
0.07002753 -0.090429857 0.11387321
0.070632294 -0.090579659 0.11400625
0.071236119 -0.090729445 0.1141393
0.071787544 -0.091029063 0.11440539
0.072389022 -0.091178864 0.11453845
0.073015779 -0.091253743 0.11460495
0.073615611 -0.091403559 0.11473799
0.074241191 -0.091478452 0.11480451
0.074893199 -0.091478452 0.11480451
0.06722825 -0.089398518 0.1120761
0.067791849 -0.089697465 0.11234286
0.068402231 -0.089846939 0.11247624
0.068987116 -0.090071127 0.11267629
0.069570594 -0.090295345 0.11287637
0.070177697 -0.090444818 0.11300975
0.070783868 -0.090594262 0.1131431
0.07133811 -0.090893209 0.11340986
0.071941927 -0.091042683 0.11354323
0.072544813 -0.091192141 0.11367661
0.073146768 -0.091341615 0.11380999
0.073721342 -0.091565818 0.11401004
0.074374527 -0.091565818 0.11401004
0.067347527 -0.089492351 0.11127518
0.067912303 -0.089790627 0.11154261
0.068499535 -0.090014324 0.11174315
0.069109917 -0.090163469 0.11187686
0.069694564 -0.090387166 0.1120774
0.070327863 -0.090461731 0.11214426
0.070884913 -0.090760022 0.11241169
0.071491078 -0.090909168 0.1125454
0.072070576 -0.091132864 0.11274594
0.072648674 -0.091356561 0.11294651
0.07325156 -0.091505706 0.1130802
0.073879942 -0.091580257 0.11314705
0.074507862 -0.091654837 0.11321391
0.067371383 -0.089885443 0.11074068
0.067960486 -0.090108648 0.11094174
0.06859684 -0.090183049 0.11100873
0.069208153 -0.090331852 0.11114277
0.069768943 -0.090629473 0.11141086
0.070402943 -0.09070389 0.11147788
0.071036488 -0.090778291 0.11154489
0.07164406 -0.090927079 0.11167893
0.072199225 -0.0912247 0.11194701
0.072804458 -0.091373518 0.11208105
0.073461153 -0.091373518 0.11208105
0.074091405 -0.09144792 0.11214805
0.067442961 -0.090130374 0.11007145
0.068032756 -0.090353101 0.11027302
0.068669811 -0.090427339 0.11034019
0.069281831 -0.090575814 0.11047457
0.069917709 -0.090650052 0.11054173
0.07052809 -0.090798512 0.11067611
0.07116279 -0.090872765 0.1107433
0.071746044 -0.091095477 0.11094485
0.072353609 -0.091243953 0.11107922
0.072960243 -0.091392428 0.11121358
0.073592149 -0.091466665 0.11128075
0.074223571 -0.091540903 0.11134796
0.067609951 -0.090080038 0.10913184
0.068225488 -0.090228185 0.10926655
0.068791434 -0.09052448 0.10953596
0.069429189 -0.090598539 0.10960329
0.070066467 -0.090672627 0.10967065
0.070703283 -0.090746686 0.10973799
0.07133963 -0.09082076 0.10980535
0.071924515 -0.091042981 0.11000741
0.072533719 -0.091191128 0.11014211
0.073167965 -0.091265187 0.11020944
0.073723137 -0.091561481 0.11047885
0.068394125 -0.090179831 0.10832496
0.069010362 -0.09032765 0.10845999
0.069674775 -0.09032765 0.10845999
0.070264816 -0.09054935 0.10866253
0.070903495 -0.090623289 0.10873005
0.071516462 -0.090771094 0.10886508
0.072102986 -0.090992808 0.10906763
0.072688103 -0.091214508 0.10927017
0.073323749 -0.091288432 0.10933769
0.073958926 -0.091362327 0.1094052
0.068562753 -0.090133786 0.10738105
0.069204964 -0.090207532 0.10744873
0.069822133 -0.090355009 0.10758407
0.07043837 -0.090502486 0.10771945
0.071103722 -0.090502486 0.10771945
0.071718559 -0.090649977 0.10785481
0.072281457 -0.090944946 0.10812555
0.072945409 -0.090944946 0.10812555
0.073557429 -0.091092438 0.1082609
0.074247114 -0.091018677 0.1081932
0.068063229 -0.090090081 0.10643482
0.068683207 -0.09023723 0.10657053
0.069350913 -0.09023723 0.10657053
0.069994047 -0.090310797 0.10663836
0.070587136 -0.090531513 0.10684189
0.071253896 -0.090531513 0.10684189
0.071895391 -0.090605095 0.10690975
0.072536424 -0.090678662 0.10697758
0.073151253 -0.090825826 0.10711327
0.073765151 -0.09097296 0.10724898
0.067631297 -0.089828432 0.10528223
0.068230227 -0.090048671 0.10548629
0.068851843 -0.090195507 0.10562231
0.069521189 -0.090195507 0.10562231
0.070141405 -0.090342298 0.10575831
0.070810273 -0.090342298 0.10575831
0.071429089 -0.090489119 0.10589434
0.072072223 -0.090562537 0.10596237
0.072714895 -0.09063594 0.10603037
0.07335709 -0.090709358 0.1060984
0.073998831 -0.090782762 0.10616638
0.067773022 -0.089863107 0.10439906
0.068373367 -0.090082839 0.10460359
0.069020487 -0.090156063 0.10467175
0.069667138 -0.090229318 0.10473993
0.07031332 -0.090302557 0.10480811
0.070983827 -0.090302557 0.10480811
0.071654335 -0.090302557 0.10480811
0.072249055 -0.090522304 0.10501266
0.072893374 -0.090595543 0.10508083
0.073537201 -0.090668797 0.10514902
0.067914762 -0.089899749 0.10351388
0.068516508 -0.09011896 0.10371891
0.069165029 -0.09019205 0.10378726
0.069813095 -0.090265125 0.10385559
0.070509791 -0.09019205 0.10378726
0.071157381 -0.090265125 0.10385559
0.071829528 -0.090265125 0.10385559
0.072451152 -0.090411291 0.10399228
0.073071845 -0.090557456 0.10412897
0.073717318 -0.090630502 0.10419729
0.068032876 -0.090011299 0.10269523
0.068635792 -0.090230018 0.10290076
0.069309577 -0.090230018 0.10290076
0.069983363 -0.090230018 0.10290076
0.070657149 -0.090230018 0.10290076
0.071330935 -0.090230018 0.10290076
0.072004721 -0.090230018 0.10290076
0.072627984 -0.090375856 0.10303777
0.073301308 -0.090375856 0.10303777
0.07394889 -0.090448752 0.10310628
0.068778932 -0.090269968 0.10201228
0.069454126 -0.090269968 0.10201228
0.070104994 -0.09034273 0.10208096
0.070804507 -0.090269968 0.10201228
0.071479701 -0.090269968 0.10201228
0.072129861 -0.09034273 0.10208096
0.072804816 -0.09034273 0.10208096
0.073454283 -0.090415463 0.10214961
0.074129 -0.090415463 0.10214961
0.068969786 -0.090166762 0.10098413
0.069598667 -0.09031193 0.10112181
0.070275269 -0.09031193 0.10112181
0.070951864 -0.09031193 0.10112181
0.071603663 -0.090384498 0.10119063
0.072280027 -0.090384498 0.10119063
0.072956391 -0.090384498 0.10119063
0.073607258 -0.090457097 0.10125948
0.074283384 -0.090457097 0.10125948
0.068434462 -0.090211019 0.10009132
0.06908907 -0.090283453 0.10016035
0.069767304 -0.090283453 0.10016035
0.070396893 -0.090428278 0.10029835
0.071074657 -0.090428278 0.10029835
0.071727633 -0.090500683 0.10036735
0.072405167 -0.090500683 0.10036735
0.0730827 -0.090500683 0.10036735
0.073734738 -0.090573102 0.10043637
0.074412033 -0.090573102 0.10043637
0.075089335 -0.090573102 0.10043637
0.067872927 -0.090329513 0.099265724
0.068505324 -0.090474024 0.099404067
0.069184497 -0.090474024 0.099404067
0.06986367 -0.090474024 0.099404067
0.070518523 -0.090546265 0.099473238
0.071172893 -0.090618521 0.099542424
0.071826808 -0.090690777 0.099611565
0.07250528 -0.090690777 0.099611565
0.073183753 -0.090690777 0.099611565
0.073862225 -0.090690777 0.099611565
0.07454069 -0.090690777 0.099611565
0.067262746 -0.09059386 0.098577142
0.067943089 -0.09059386 0.098577142
0.068599813 -0.090665936 0.098646462
0.069279924 -0.090665936 0.098646462
0.069960035 -0.090665936 0.098646462
0.070615813 -0.090738028 0.098715812
0.071271136 -0.09081009 0.098785147
0.071950771 -0.09081009 0.098785147
0.07258036 -0.090954274 0.098923817
0.073259532 -0.090954274 0.098923817
0.073938712 -0.090954274 0.098923817
0.067355365 -0.090787247 0.097818047
0.068036646 -0.090787247 0.097818047
0.068670683 -0.090931088 0.09795706
0.069375351 -0.09085916 0.097887546
0.070056401 -0.09085916 0.097887546
0.070713118 -0.090931088 0.09795706
0.071418494 -0.09085916 0.097887546
0.072074741 -0.090931088 0.09795706
0.072705492 -0.091074929 0.098096073
0.073436365 -0.090931088 0.09795706
0.074066184 -0.091074929 0.098096073
0.074746527 -0.091074929 0.098096073
0.067471132 -0.090910226 0.096987978
0.068130195 -0.090981975 0.097057641
0.068812415 -0.090981975 0.097057641
0.069494635 -0.090981975 0.097057641
0.070200935 -0.090910226 0.096987978
0.070834741 -0.091053739 0.097127318
0.071516722 -0.091053739 0.097127318
0.072198704 -0.091053739 0.097127318
0.072880685 -0.091053739 0.097127318
0.073562674 -0.091053739 0.097127318
0.074193664 -0.091197252 0.097266644
0.074926637 -0.091053739 0.097127318
0.067679517 -0.090748489 0.095876917
0.068317302 -0.090891674 0.096016586
0.068954147 -0.091034859 0.096156254
0.069637768 -0.091034859 0.096156254
0.070321389 -0.091034859 0.096156254
0.070980698 -0.09110643 0.096226066
0.071639523 -0.091178015 0.096295893
0.07234747 -0.09110643 0.096226066
0.073030859 -0.09110643 0.096226066
0.073714249 -0.09110643 0.096226066
0.074397638 -0.09110643 0.096226066
0.067841597 -0.090732604 0.094902858
0.068481021 -0.090875447 0.095042869
0.069119513 -0.091018274 0.095182836
0.069780916 -0.091089696 0.095252857
0.070465937 -0.091089696 0.095252857
0.071150973 -0.091089696 0.095252857
0.07178688 -0.091232553 0.095392853
0.072471432 -0.091232553 0.095392853
0.073181026 -0.091161117 0.095322847
0.073865823 -0.091161117 0.095322847
0.074550621 -0.091161117 0.095322847
0.067934215 -0.090932786 0.094136983
0.068621352 -0.090932786 0.094136983
0.069284871 -0.091004029 0.094207138
0.06997177 -0.091004029 0.094207138
0.070634574 -0.091075301 0.094277307
0.071321249 -0.091075301 0.094277307
0.071934238 -0.091289058 0.094487816
0.072620198 -0.091289058 0.094487816
0.073306166 -0.091289058 0.094487816
0.073992133 -0.091289058 0.094487816
0.074652597 -0.091360331 0.094557986
0.067430444 -0.090849921 0.093088448
0.068073146 -0.090992108 0.093229115
0.068761684 -0.090992108 0.093229115
0.069402978 -0.091134295 0.093369782
0.070114903 -0.091063201 0.093299463
0.070779122 -0.091134295 0.093369782
0.071442872 -0.091205388 0.09344013
0.072081596 -0.091347545 0.093580768
0.072744168 -0.091418669 0.093651101
0.073456332 -0.091347545 0.093580768
0.074118435 -0.091418669 0.093651101
0.06680949 -0.091124356 0.092389777
0.067499205 -0.091124356 0.092389777
0.068188913 -0.091124356 0.092389777
0.068925403 -0.090982497 0.092248783
0.069568336 -0.091124356 0.092389777
0.070305765 -0.090982497 0.092248783
0.070947759 -0.091124356 0.092389777
0.071637474 -0.091124356 0.092389777
0.07225351 -0.091337115 0.092601255
0.072942518 -0.091337115 0.092601255
0.073631525 -0.091337115 0.092601255
0.07432054 -0.091337115 0.092601255
0.066922918 -0.091258273 0.091548771
0.067613803 -0.091258273 0.091548771
0.06830468 -0.091258273 0.091548771
0.06904234 -0.091116741 0.091407448
0.06975732 -0.091045976 0.091336772
0.070448905 -0.091045976 0.091336772
0.071116395 -0.091116741 0.091407448
0.07180775 -0.091116741 0.091407448
0.072449982 -0.091258273 0.091548771
0.073116072 -0.091329008 0.091619417
0.073806718 -0.091329008 0.091619417
0.0744721 -0.091399774 0.091690093
0.067682564 -0.091535002 0.090847746
0.068397298 -0.0914644 0.090776935
0.069159284 -0.09125264 0.090564445
0.069899052 -0.091111436 0.090422809
0.070639752 -0.090970248 0.090281144
0.071333215 -0.090970248 0.090281144
0.071953699 -0.091182038 0.090493605
0.072621897 -0.09125264 0.090564445
0.073314413 -0.09125264 0.090564445
0.073981911 -0.091323212 0.09063527
0.067797162 -0.091671884 0.090003759
0.068513073 -0.091601461 0.089932784
0.069276229 -0.091390163 0.089719787
0.070040792 -0.091178879 0.089506805
0.0707829 -0.091038018 0.089364842
0.071477763 -0.091038018 0.089364842
0.072148301 -0.091108456 0.089435846
0.072818369 -0.091178879 0.089506805
0.073463179 -0.09131974 0.089648798
0.074207157 -0.091178879 0.089506805
0.068582535 -0.091880679 0.089229271
0.069463328 -0.091318578 0.088660017
0.070253395 -0.091037527 0.088375375
0.070949897 -0.091037527 0.088375375
0.071670488 -0.090967268 0.088304237
0.072367229 -0.090967268 0.088304237
0.073039405 -0.091037527 0.088375375
0.073735908 -0.091037527 0.088375375
0.06879092 -0.09174034 0.088096857
0.069627047 -0.09131974 0.087668911
0.070560485 -0.090618744 0.086955667
0.071188457 -0.090829059 0.087169647
0.071911395 -0.09075895 0.087098315
0.072659135 -0.090618744 0.086955667
0.073309556 -0.09075895 0.087098315
0.069392927 -0.090414107 0.085746124
0.070071429 -0.090484008 0.085817605
0.070796706 -0.090414107 0.085746124
0.071474746 -0.090484008 0.085817605
0.072176397 -0.090484008 0.085817605
0.072902381 -0.090414107 0.085746124
0.073579714 -0.090484008 0.085817605
0.069647625 -0.09014298 0.0844616
0.070398867 -0.090003446 0.08431828
0.071080178 -0.090073213 0.084389955
0.071713306 -0.090282515 0.084604919
0.072393216 -0.090352282 0.084676549
0.073121309 -0.090282515 0.084604919
0.070157014 -0.089109898 0.082383409
0.070819855 -0.089249104 0.082527041
0.071481764 -0.089388296 0.082670689
0.072142728 -0.089527503 0.082814336
0.07280276 -0.089666709 0.082957983
0.073510505 -0.089666709 0.082957983
0 0 0 1 0 0 0 1 0 0 0 1 0 0 0 0 0 570 1 0 0
