ply
format ascii 1.0
comment PCL generated
element vertex 516
property float x
property float y
property float z
element camera 1
property float view_px
property float view_py
property float view_pz
property float x_axisx
property float x_axisy
property float x_axisz
property float y_axisx
property float y_axisy
property float y_axisz
property float z_axisx
property float z_axisy
property float z_axisz
property float focal
property float scalex
property float scaley
property float centerx
property float centery
property int viewportx
property int viewporty
property float k1
property float k2
end_header
0.069034405 -0.088824168 0.13174236
0.069662757 -0.088824168 0.13174236
0.070291109 -0.088824168 0.13174236
0.070919462 -0.088824168 0.13174236
0.071547814 -0.088824168 0.13174236
0.067752436 -0.089347035 0.13136092
0.068380557 -0.089347035 0.13136092
0.069034405 -0.089268491 0.13129804
0.069662757 -0.089268491 0.13129804
0.070264906 -0.089347035 0.13136092
0.070893019 -0.089347035 0.13136092
0.071521141 -0.089347035 0.13136092
0.072122365 -0.089425579 0.1314238
0.072723113 -0.089504093 0.13148665
0.067049235 -0.090026304 0.1311059
0.067727178 -0.089869559 0.13097982
0.068355061 -0.089869559 0.13097982
0.069008671 -0.089791179 0.13091677
0.069636784 -0.089791179 0.13091677
0.070264906 -0.089791179 0.13091677
0.070893019 -0.089791179 0.13091677
0.071494475 -0.089869559 0.13097982
0.072095469 -0.089947909 0.13104284
0.072695971 -0.090026304 0.1311059
0.073296025 -0.090104669 0.13116893
0.067049235 -0.090469956 0.13066225
0.067701921 -0.090391725 0.13059902
0.068329573 -0.090391725 0.13059902
0.068957217 -0.090391725 0.13059902
0.069610827 -0.090313539 0.13053584
0.070238717 -0.090313539 0.13053584
0.070866592 -0.090313539 0.13053584
0.071467817 -0.090391725 0.13059902
0.072068557 -0.090469956 0.13066225
0.072668836 -0.090548158 0.13072546
0.073268652 -0.090626389 0.13078867
0.073867999 -0.09070459 0.13085188
0.066372231 -0.091069698 0.13034534
0.067024209 -0.090991646 0.13028197
0.067676648 -0.090913609 0.1302186
0.068304069 -0.090913609 0.1302186
0.068957217 -0.090835541 0.13015521
0.069584869 -0.090835541 0.13015521
0.070186317 -0.090913609 0.1302186
0.070840165 -0.090835541 0.13015521
0.071467817 -0.090835541 0.13015521
0.072041661 -0.090991646 0.13028197
0.072641701 -0.091069698 0.13034534
0.073241286 -0.091147751 0.13040872
0.073840387 -0.091225803 0.13047211
0.074439026 -0.09130384 0.13053548
0.066347443 -0.091590896 0.12996557
0.066999175 -0.091513023 0.12990203
0.067651391 -0.091435134 0.12983848
0.068253078 -0.091513023 0.12990203
0.068931475 -0.091357261 0.12977494
0.069558896 -0.091357261 0.12977494
0.070186317 -0.091357261 0.12977494
0.070813723 -0.091357261 0.12977494
0.071441144 -0.091357261 0.12977494
0.072014757 -0.091513023 0.12990203
0.072614565 -0.091590896 0.12996557
0.073213905 -0.091668785 0.13002911
0.073840387 -0.091668785 0.13002911
0.074439026 -0.091746658 0.13009265
0.075037196 -0.091824561 0.1301562
0.066347443 -0.092034042 0.12952241
0.066974156 -0.092034042 0.12952241
0.067600869 -0.092034042 0.12952241
0.068227582 -0.092034042 0.12952241
0.068880014 -0.091956347 0.12945871
0.069532938 -0.091878608 0.12939501
0.070160121 -0.091878608 0.12939501
0.070787296 -0.091878608 0.12939501
0.071414478 -0.091878608 0.12939501
0.072014757 -0.091956347 0.12945871
0.072614565 -0.092034042 0.12952241
0.073241286 -0.092034042 0.12952241
0.073840387 -0.092111781 0.12958613
0.074439026 -0.092189491 0.12964983
0.075037196 -0.092267215 0.12971355
0.066322647 -0.092554763 0.12914315
0.066949122 -0.092554763 0.12914315
0.067600869 -0.092477202 0.12907927
0.068253078 -0.092399657 0.1290154
0.068880014 -0.092399657 0.1290154
0.069532938 -0.092322096 0.12895152
0.070160121 -0.092322096 0.12895152
0.070787296 -0.092322096 0.12895152
0.071414478 -0.092322096 0.12895152
0.072014757 -0.092399657 0.1290154
0.072641701 -0.092399657 0.1290154
0.073241286 -0.092477202 0.12907927
0.073840387 -0.092554763 0.12914315
0.074439026 -0.092632309 0.12920702
0.075037196 -0.092709869 0.1292709
0.066949122 -0.09299776 0.12870017
0.067600869 -0.092920363 0.12863611
0.068227582 -0.092920363 0.12863611
0.068880014 -0.092842981 0.12857208
0.069532938 -0.092765585 0.12850803
0.070160121 -0.092765585 0.12850803
0.070813723 -0.092688203 0.128444
0.071414478 -0.092765585 0.12850803
0.072041661 -0.092765585 0.12850803
0.072614565 -0.092920363 0.12863611
0.073241286 -0.092920363 0.12863611
0.073840387 -0.09299776 0.12870017
0.074439026 -0.093075126 0.1287642
0.067600869 -0.093363509 0.12819296
0.068253078 -0.093286291 0.12812877
0.068880014 -0.093286291 0.12812877
0.069532938 -0.093209058 0.12806454
0.070186317 -0.093131855 0.12800035
0.070866592 -0.092977419 0.12787196
0.071467817 -0.093054622 0.12793614
0.072014757 -0.093286291 0.12812877
0.072614565 -0.093363509 0.12819296
0.073268652 -0.093286291 0.12812877
0.073867999 -0.093363509 0.12819296
0.074439026 -0.093517959 0.12832138
0.067600869 -0.093806654 0.1277498
0.068253078 -0.093729615 0.12768544
0.068905748 -0.093652546 0.12762107
0.069532938 -0.093652546 0.12762107
0.070160121 -0.093652546 0.12762107
0.070787296 -0.093652546 0.12762107
0.071467817 -0.093498439 0.12749232
0.072095469 -0.093498439 0.12749232
0.072695971 -0.093575507 0.1275567
0.073268652 -0.093729615 0.12768544
0.073867999 -0.093806654 0.1277498
0.068380557 -0.093788505 0.12691946
0.069060132 -0.093634725 0.12679039
0.069766618 -0.093404055 0.12659676
0.070317306 -0.093634725 0.12679039
0.070998751 -0.093480945 0.12666132
0.071654484 -0.093404055 0.12659676
0.072203062 -0.093634725 0.12679039
0.072777376 -0.093788505 0.12691946
0.073350765 -0.093942255 0.12704851
0.073923208 -0.094096035 0.12717758
0.069343165 -0.093235269 0.12563421
0.070000298 -0.093158528 0.12556949
0.070631698 -0.093158528 0.12556949
0.071236648 -0.093235269 0.12563421
0.071867816 -0.093235269 0.12563421
0.072472081 -0.093311965 0.12569889
0.071659572 -0.092456669 0.12415007
0.072267823 -0.092533216 0.12421492
0.070165284 -0.090685084 0.12012337
0.070809789 -0.090685084 0.12012337
0.071402378 -0.090837181 0.12025408
0.072046429 -0.090837181 0.12025408
0.072690465 -0.090837181 0.12025408
0.073307842 -0.090913266 0.12031946
0.073978558 -0.090837181 0.12025408
0.069151558 -0.090305999 0.11894682
0.069722869 -0.090533674 0.11914341
0.070343763 -0.090609565 0.11920892
0.070938446 -0.090761334 0.11933997
0.071558163 -0.09083724 0.11940552
0.072125018 -0.09106493 0.1196021
0.072769761 -0.09106493 0.1196021
0.073414512 -0.09106493 0.1196021
0.074059255 -0.09106493 0.1196021
0.069251671 -0.090460643 0.1182265
0.069874443 -0.090536371 0.11829217
0.070445739 -0.090763554 0.11848927
0.071067095 -0.090839282 0.11855495
0.071687981 -0.090915009 0.11862066
0.072334602 -0.090915009 0.11862066
0.072901927 -0.091142192 0.11881775
0.073574513 -0.091066465 0.11875202
0.074220672 -0.091066465 0.11875202
0.068925969 -0.08993654 0.1169121
0.069501951 -0.090163231 0.11710967
0.070000745 -0.090616614 0.11750482
0.07062421 -0.090692177 0.1175707
0.071247205 -0.090767741 0.11763655
0.071869738 -0.09084329 0.11770241
0.072465606 -0.090994418 0.11783411
0.073113389 -0.090994418 0.11783411
0.07376118 -0.090994418 0.11783411
0.074408978 -0.090994418 0.11783411
0.068446815 -0.089869142 0.11598955
0.069025144 -0.090095326 0.11618762
0.069602057 -0.090321541 0.11638571
0.070177577 -0.090547711 0.11658378
0.070777193 -0.09069851 0.11671583
0.071350127 -0.090924695 0.11691388
0.071999565 -0.090924695 0.11691388
0.072596595 -0.091075495 0.11704594
0.073219113 -0.091150895 0.11711198
0.073894516 -0.091075495 0.11704594
0.074543484 -0.091075495 0.11704594
0.068520486 -0.090104997 0.11532946
0.069099523 -0.090330675 0.11552802
0.069702171 -0.090481147 0.1156604
0.07027863 -0.09070684 0.11585897
0.070904672 -0.090782076 0.11592516
0.071478777 -0.091007754 0.11612374
0.072129384 -0.091007754 0.11612374
0.072727591 -0.091158226 0.11625612
0.073351286 -0.091233462 0.11632229
0.074027851 -0.091158226 0.11625612
0.074651085 -0.091233462 0.11632229
0.069248281 -0.090341821 0.11466834
0.069802284 -0.090642095 0.11493376
0.070430197 -0.090717167 0.11500014
0.071057647 -0.090792209 0.11506648
0.071658894 -0.090942353 0.11519919
0.072233245 -0.091167539 0.11539826
0.072832383 -0.091317669 0.11553097
0.07345701 -0.091392756 0.11559734
0.074107848 -0.091392756 0.11559734
0.074758686 -0.091392756 0.11559734
0.068183303 -0.090055361 0.1135406
0.068790644 -0.090205148 0.11367366
0.069347449 -0.090504766 0.11393975
0.069952451 -0.090654537 0.11407277
0.070581771 -0.090729445 0.1141393
0.07121063 -0.090804338 0.11420581
0.071761817 -0.091103956 0.1144719
0.072363064 -0.091253743 0.11460495
0.072989583 -0.091328636 0.11467147
0.073615611 -0.091403559 0.11473799
0.074267857 -0.091403559 0.11473799
0.074893199 -0.091478452 0.11480451
0.068304934 -0.090145871 0.11274299
0.06888888 -0.090370074 0.11294305
0.069496214 -0.090519547 0.11307642
0.070127644 -0.090594262 0.1131431
0.070758604 -0.090669006 0.1132098
0.071312606 -0.090967953 0.11347656
0.0719162 -0.091117397 0.11360991
0.072518855 -0.09126687 0.11374329
0.073146768 -0.091341615 0.11380999
0.073747776 -0.091491088 0.11394337
0.074374527 -0.091565818 0.11401004
0.067840032 -0.090014324 0.11174315
0.068402231 -0.090312615 0.11201057
0.069036238 -0.090387166 0.1120774
0.06964498 -0.090536296 0.11221112
0.07027781 -0.090610877 0.11227798
0.070834383 -0.090909168 0.1125454
0.071465589 -0.090983734 0.11261223
0.072070576 -0.091132864 0.11274594
0.072648674 -0.091356561 0.11294651
0.073277757 -0.091431141 0.11301337
0.073879942 -0.091580257 0.11314705
0.067912303 -0.090257466 0.11107577
0.068523854 -0.090406269 0.11120979
0.069159031 -0.090480655 0.11127682
0.069768943 -0.090629473 0.11141086
0.070377916 -0.090778291 0.11154489
0.070985958 -0.090927079 0.11167893
0.071618564 -0.091001481 0.11174594
0.072173499 -0.091299102 0.11201403
0.072778493 -0.09144792 0.11214805
0.07340876 -0.091522306 0.11221506
0.074064977 -0.091522306 0.11221506
0.068008669 -0.090427339 0.11034019
0.068572506 -0.090724304 0.11060894
0.06923271 -0.090724304 0.11060894
0.069868118 -0.090798512 0.11067611
0.070503056 -0.090872765 0.1107433
0.071061745 -0.09116973 0.11101204
0.071695052 -0.091243953 0.11107922
0.072327882 -0.091318175 0.11114639
0.072960243 -0.091392428 0.11121358
0.073565945 -0.091540903 0.11134796
0.074223571 -0.091540903 0.11134796
0.068129122 -0.09052448 0.10953596
0.068742782 -0.090672627 0.10967065
0.069380067 -0.090746686 0.10973799
0.070016876 -0.09082076 0.10980535
0.07060317 -0.091042981 0.11000741
0.071238585 -0.091117054 0.11007473
0.071848027 -0.091265187 0.11020944
0.072482258 -0.091339275 0.11027679
0.073064104 -0.091561481 0.11047885
0.073723137 -0.091561481 0.11047885
0.068345942 -0.09032765 0.10845999
0.06896171 -0.09047547 0.10859503
0.069601104 -0.09054935 0.10866253
0.070215225 -0.090697169 0.10879757
0.070853442 -0.090771094 0.10886508
0.071440674 -0.090992808 0.10906763
0.072026506 -0.091214508 0.10927017
0.072662368 -0.091288432 0.10933769
0.073297784 -0.091362327 0.1094052
0.068514571 -0.090281278 0.10751642
0.069156311 -0.090355009 0.10758407
0.069773018 -0.090502486 0.10771945
0.070413575 -0.090576246 0.10778713
0.071028642 -0.090723708 0.10792249
0.071617506 -0.090944946 0.10812555
0.072230466 -0.091092438 0.1082609
0.072868221 -0.091166154 0.10832858
0.073531464 -0.091166154 0.10832858
0.068087086 -0.090016484 0.10636698
0.069350913 -0.09023723 0.10657053
0.069994047 -0.090310797 0.10663836
0.070587136 -0.090531513 0.10684189
0.071228862 -0.090605095 0.10690975
0.071844868 -0.090752259 0.10704544
0.072408937 -0.091046557 0.10731682
0.073048331 -0.091120124 0.10738467
0.073713221 -0.091120124 0.10738467
0.068230227 -0.090048671 0.10548629
0.068851843 -0.090195507 0.10562231
0.069521189 -0.090195507 0.10562231
0.070165962 -0.09026891 0.1056903
0.070810273 -0.090342298 0.10575831
0.071404055 -0.090562537 0.10596237
0.072046965 -0.09063594 0.10603037
0.072612911 -0.090929583 0.10630241
0.068373367 -0.090082839 0.10460359
0.069020487 -0.090156063 0.10467175
0.069667138 -0.090229318 0.10473993
0.07031332 -0.090302557 0.10480811
0.070959032 -0.090375811 0.10487629
0.071579248 -0.090522304 0.10501266
0.072223797 -0.090595543 0.10508083
0.07286787 -0.090668797 0.10514902
0.073511474 -0.090742037 0.10521717
0.068492651 -0.09019205 0.10378726
0.069165029 -0.09019205 0.10378726
0.069813095 -0.090265125 0.10385559
0.070460677 -0.090338215 0.10392395
0.071132585 -0.090338215 0.10392395
0.071779475 -0.090411291 0.10399228
0.07240063 -0.090557456 0.10412897
0.073046349 -0.090630502 0.10419729
0.073717318 -0.090630502 0.10419729
0.068635792 -0.090230018 0.10290076
0.069309577 -0.090230018 0.10290076
0.069983363 -0.090230018 0.10290076
0.070632592 -0.090302944 0.10296927
0.071306139 -0.090302944 0.10296927
0.071954668 -0.090375856 0.10303777
0.072627984 -0.090375856 0.10303777
0.073301308 -0.090375856 0.10303777
0.073897429 -0.090594575 0.10324329
0.068150982 -0.090124488 0.10187493
0.068778932 -0.090269968 0.10201228
0.069454126 -0.090269968 0.10201228
0.070104994 -0.09034273 0.10208096
0.070779949 -0.09034273 0.10208096
0.071454905 -0.09034273 0.10208096
0.072129861 -0.09034273 0.10208096
0.072804816 -0.09034273 0.10208096
0.073454283 -0.090415463 0.10214961
0.074154727 -0.09034273 0.10208096
0.06822186 -0.090384498 0.10119063
0.068898216 -0.090384498 0.10119063
0.06957458 -0.090384498 0.10119063
0.070250943 -0.090384498 0.10119063
0.070927307 -0.090384498 0.10119063
0.071578868 -0.090457097 0.10125948
0.072254993 -0.090457097 0.10125948
0.072931126 -0.090457097 0.10125948
0.073607258 -0.090457097 0.10125948
0.074283384 -0.090457097 0.10125948
0.067685813 -0.090428278 0.10029835
0.068339966 -0.090500683 0.10036735
0.0690175 -0.090500683 0.10036735
0.069695033 -0.090500683 0.10036735
0.070372567 -0.090500683 0.10036735
0.0710501 -0.090500683 0.10036735
0.071702838 -0.090573102 0.10043637
0.072380133 -0.090573102 0.10043637
0.073057435 -0.090573102 0.10043637
0.073709242 -0.090645522 0.10050537
0.074412033 -0.090573102 0.10043637
0.067755982 -0.090690777 0.099611565
0.068434462 -0.090690777 0.099611565
0.069112927 -0.090690777 0.099611565
0.069791399 -0.090690777 0.099611565
0.070469871 -0.090690777 0.099611565
0.071172893 -0.090618521 0.099542424
0.071826808 -0.090690777 0.099611565
0.072480246 -0.090763032 0.099680766
0.073158488 -0.090763032 0.099680766
0.073836721 -0.090763032 0.099680766
0.074514955 -0.090763032 0.099680766
0.067872927 -0.09081009 0.098785147
0.068505324 -0.090954274 0.098923817
0.069184497 -0.090954274 0.098923817
0.06986367 -0.090954274 0.098923817
0.070591494 -0.09081009 0.098785147
0.071271136 -0.09081009 0.098785147
0.071901187 -0.090954274 0.098923817
0.07258036 -0.090954274 0.098923817
0.073259532 -0.090954274 0.098923817
0.073938712 -0.090954274 0.098923817
0.074617878 -0.090954274 0.098923817
0.067943089 -0.091074929 0.098096073
0.068599813 -0.091146842 0.098165557
0.069303781 -0.091074929 0.098096073
0.069984123 -0.091074929 0.098096073
0.070640147 -0.091146842 0.098165557
0.071344808 -0.091074929 0.098096073
0.07202515 -0.091074929 0.098096073
0.072705492 -0.091074929 0.098096073
0.073360585 -0.091146842 0.098165557
0.074040696 -0.091146842 0.098165557
0.0747208 -0.091146842 0.098165557
0.068741545 -0.091197252 0.097266644
0.069423057 -0.091197252 0.097266644
0.07015276 -0.091053739 0.097127318
0.070834741 -0.091053739 0.097127318
0.071467601 -0.091197252 0.097266644
0.07214912 -0.091197252 0.097266644
0.072805606 -0.091268986 0.097336307
0.073512152 -0.091197252 0.097266644
0.07414268 -0.091340736 0.09740597
0.074849449 -0.091268986 0.097336307
0.068270527 -0.091034859 0.096156254
0.068954147 -0.091034859 0.096156254
0.069637768 -0.091034859 0.096156254
0.070321389 -0.091034859 0.096156254
0.070980698 -0.09110643 0.096226066
0.07166408 -0.09110643 0.096226066
0.072322682 -0.091178015 0.096295893
0.072955772 -0.091321185 0.096435577
0.073638462 -0.091321185 0.096435577
0.074295655 -0.091392785 0.096505418
0.06772583 -0.091089696 0.095252857
0.068387471 -0.091161117 0.095322847
0.069072269 -0.091161117 0.095322847
0.069780916 -0.091089696 0.095252857
0.070465937 -0.091089696 0.095252857
0.071126647 -0.091161117 0.095322847
0.071811438 -0.091161117 0.095322847
0.072471432 -0.091232553 0.095392853
0.073105939 -0.091375396 0.095532864
0.073790029 -0.091375396 0.095532864
0.07444863 -0.091446817 0.09560284
0.068527795 -0.091217816 0.094417647
0.069261245 -0.091075301 0.094277307
0.069947906 -0.091075301 0.094277307
0.070634574 -0.091075301 0.094277307
0.071272597 -0.091217816 0.094417647
0.071934238 -0.091289058 0.094487816
0.072595403 -0.091360331 0.094557986
0.073281132 -0.091360331 0.094557986
0.073916346 -0.091502815 0.094698295
0.068691514 -0.091205388 0.09344013
0.069426604 -0.091063201 0.093299463
0.070091054 -0.091134295 0.093369782
0.070779122 -0.091134295 0.093369782
0.071467198 -0.091134295 0.093369782
0.072057031 -0.091418669 0.093651101
0.072744168 -0.091418669 0.093651101
0.073431298 -0.091418669 0.093651101
0.074093178 -0.091489732 0.093721434
0.068165764 -0.091195285 0.092460245
0.068878621 -0.091124356 0.092389777
0.069615588 -0.090982497 0.092248783
0.070305765 -0.090982497 0.092248783
0.070947759 -0.091124356 0.092389777
0.071613155 -0.091195285 0.092460245
0.072278067 -0.091266215 0.092530772
0.072992101 -0.091195285 0.092460245
0.073631525 -0.091337115 0.092601255
0.07427001 -0.091478974 0.092742249
0.06830468 -0.091258273 0.091548771
0.06904234 -0.091116741 0.091407448
0.06975732 -0.091045976 0.091336772
0.070448905 -0.091045976 0.091336772
0.07114049 -0.091045976 0.091336772
0.07180775 -0.091116741 0.091407448
0.072449982 -0.091258273 0.091548771
0.073190451 -0.091116741 0.091407448
0.073806718 -0.091329008 0.091619417
0.069182672 -0.091182038 0.090493605
0.069899052 -0.091111436 0.090422809
0.070592038 -0.091111436 0.090422809
0.071285032 -0.091111436 0.090422809
0.071953699 -0.091182038 0.090493605
0.072671011 -0.091111436 0.090422809
0.073339209 -0.091182038 0.090493605
0.074006937 -0.09125264 0.090564445
0.069369778 -0.091108456 0.089435846
0.070088036 -0.091038018 0.089364842
0.0707829 -0.091038018 0.089364842
0.071453668 -0.091108456 0.089435846
0.072148301 -0.091108456 0.089435846
0.072842926 -0.091108456 0.089435846
0.073537558 -0.091108456 0.089435846
0.069556884 -0.091037527 0.088375375
0.070324257 -0.090826735 0.088161916
0.070997611 -0.090896994 0.088233069
0.071694583 -0.090896994 0.088233069
0.072367229 -0.090967268 0.088304237
0.070560485 -0.090618744 0.086955667
0.071307741 -0.090478584 0.086813033
0.071959578 -0.090618744 0.086955667
0.072659135 -0.090618744 0.086955667
0.073309556 -0.09075895 0.087098315
0.070867576 -0.090204298 0.085531667
0.07159403 -0.090134367 0.085460156
0.072200485 -0.090414107 0.085746124
0.072878055 -0.090484008 0.085817605
0.073579714 -0.090484008 0.085817605
0.071151048 -0.089863911 0.084174976
0.071784876 -0.090073213 0.084389955
0.072393216 -0.090352282 0.084676549
0.073024005 -0.090561569 0.084891543
0.070133857 -0.089179501 0.082455248
0.070819855 -0.089249104 0.082527041
0.071458139 -0.089457914 0.082742527
0.072095014 -0.089666709 0.082957983
0.072754577 -0.089805916 0.08310163
0 0 0 1 0 0 0 1 0 0 0 1 0 0 0 0 0 516 1 0 0
