ply
format ascii 1.0
comment PCL generated
element vertex 532
property float x
property float y
property float z
element camera 1
property float view_px
property float view_py
property float view_pz
property float x_axisx
property float x_axisy
property float x_axisz
property float y_axisx
property float y_axisy
property float y_axisz
property float z_axisx
property float z_axisy
property float z_axisz
property float focal
property float scalex
property float scaley
property float centerx
property float centery
property int viewportx
property int viewporty
property float k1
property float k2
end_header
0.069662757 -0.088824168 0.13174236
0.070291109 -0.088824168 0.13174236
0.070919462 -0.088824168 0.13174236
0.067752436 -0.089347035 0.13136092
0.068380557 -0.089347035 0.13136092
0.069034405 -0.089268491 0.13129804
0.069662757 -0.089268491 0.13129804
0.070291109 -0.089268491 0.13129804
0.070919462 -0.089268491 0.13129804
0.071521141 -0.089347035 0.13136092
0.072122365 -0.089425579 0.1314238
0.067074262 -0.089947909 0.13104284
0.067727178 -0.089869559 0.13097982
0.068380557 -0.089791179 0.13091677
0.069008671 -0.089791179 0.13091677
0.069636784 -0.089791179 0.13091677
0.070264906 -0.089791179 0.13091677
0.070893019 -0.089791179 0.13091677
0.071494475 -0.089869559 0.13097982
0.072095469 -0.089947909 0.13104284
0.072723113 -0.089947909 0.13104284
0.066397026 -0.090548158 0.13072546
0.067049235 -0.090469956 0.13066225
0.067701921 -0.090391725 0.13059902
0.068329573 -0.090391725 0.13059902
0.068982944 -0.090313539 0.13053584
0.069610827 -0.090313539 0.13053584
0.070238717 -0.090313539 0.13053584
0.070866592 -0.090313539 0.13053584
0.071494475 -0.090313539 0.13053584
0.072095469 -0.090391725 0.13059902
0.072695971 -0.090469956 0.13066225
0.073296025 -0.090548158 0.13072546
0.073923208 -0.090548158 0.13072546
0.066372231 -0.091069698 0.13034534
0.067024209 -0.090991646 0.13028197
0.067676648 -0.090913609 0.1302186
0.068329573 -0.090835541 0.13015521
0.068957217 -0.090835541 0.13015521
0.069610827 -0.090757519 0.13009186
0.070238717 -0.090757519 0.13009186
0.070866592 -0.090757519 0.13009186
0.071441144 -0.090913609 0.1302186
0.072095469 -0.090835541 0.13015521
0.072695971 -0.090913609 0.1302186
0.073323391 -0.090913609 0.1302186
0.073895596 -0.091069698 0.13034534
0.06572073 -0.091590896 0.12996557
0.066347443 -0.091590896 0.12996557
0.066999175 -0.091513023 0.12990203
0.067626126 -0.091513023 0.12990203
0.068278573 -0.091435134 0.12983848
0.068931475 -0.091357261 0.12977494
0.069558896 -0.091357261 0.12977494
0.070212521 -0.091279358 0.12971139
0.070840165 -0.091279358 0.12971139
0.071441144 -0.091357261 0.12977494
0.072068557 -0.091357261 0.12977494
0.072668836 -0.091435134 0.12983848
0.073296025 -0.091435134 0.12983848
0.073895596 -0.091513023 0.12990203
0.07452254 -0.091513023 0.12990203
0.06572073 -0.092034042 0.12952241
0.066347443 -0.092034042 0.12952241
0.066999175 -0.091956347 0.12945871
0.067626126 -0.091956347 0.12945871
0.068278573 -0.091878608 0.12939501
0.068905748 -0.091878608 0.12939501
0.069558896 -0.091800898 0.12933129
0.070186317 -0.091800898 0.12933129
0.070840165 -0.091723174 0.12926759
0.071467817 -0.091723174 0.12926759
0.072068557 -0.091800898 0.12933129
0.072668836 -0.091878608 0.12939501
0.073296025 -0.091878608 0.12939501
0.073895596 -0.091956347 0.12945871
0.07452254 -0.091956347 0.12945871
0.066347443 -0.092477202 0.12907927
0.066999175 -0.092399657 0.1290154
0.067626126 -0.092399657 0.1290154
0.068278573 -0.092322096 0.12895152
0.068905748 -0.092322096 0.12895152
0.069558896 -0.092244551 0.12888765
0.070212521 -0.09216699 0.12882377
0.070840165 -0.09216699 0.12882377
0.071441144 -0.092244551 0.12888765
0.072068557 -0.092244551 0.12888765
0.072695971 -0.092244551 0.12888765
0.073296025 -0.092322096 0.12895152
0.073895596 -0.092399657 0.1290154
0.07452254 -0.092399657 0.1290154
0.066372231 -0.092842981 0.12857208
0.067024209 -0.092765585 0.12850803
0.067651391 -0.092765585 0.12850803
0.068304069 -0.092688203 0.128444
0.068957217 -0.092610806 0.12837996
0.069584869 -0.092610806 0.12837996
0.070238717 -0.092533439 0.12831593
0.070866592 -0.092533439 0.12831593
0.071521141 -0.092456073 0.1282519
0.072122365 -0.092533439 0.12831593
0.072695971 -0.092688203 0.128444
0.073323391 -0.092688203 0.128444
0.073923208 -0.092765585 0.12850803
0.07452254 -0.092842981 0.12857208
0.066999175 -0.093286291 0.12812877
0.067676648 -0.093131855 0.12800035
0.068304069 -0.093131855 0.12800035
0.068957217 -0.093054622 0.12793614
0.069610827 -0.092977419 0.12787196
0.070291109 -0.092822984 0.12774354
0.070972323 -0.092668533 0.12761512
0.071494475 -0.092977419 0.12787196
0.072122365 -0.092977419 0.12787196
0.072723113 -0.093054622 0.12793614
0.073350765 -0.093054622 0.12793614
0.073923208 -0.093209058 0.12806454
0.067676648 -0.093575507 0.1275567
0.068355061 -0.0934214 0.12742797
0.069060132 -0.093190253 0.12723486
0.069662757 -0.093267292 0.12729923
0.070317306 -0.093190253 0.12723486
0.070945889 -0.093190253 0.12723486
0.071627811 -0.09303613 0.12710613
0.072256871 -0.09303613 0.12710613
0.072804518 -0.093267292 0.12729923
0.073405497 -0.093344361 0.12736361
0.073950805 -0.093575507 0.1275567
0.06790401 -0.09332718 0.12653224
0.068635523 -0.09301962 0.12627411
0.069265977 -0.09301962 0.12627411
0.069922395 -0.092942744 0.12620957
0.070605494 -0.092788965 0.1260805
0.071183786 -0.092942744 0.12620957
0.071814477 -0.092942744 0.12620957
0.072364479 -0.0931734 0.12640318
0.072913058 -0.093404055 0.12659676
0.073460236 -0.093634725 0.12679039
0.068839483 -0.092851654 0.12531072
0.069523275 -0.092698216 0.1251813
0.070156083 -0.092698216 0.1251813
0.070841283 -0.092544779 0.12505192
0.071421683 -0.092698216 0.1251813
0.072027817 -0.092774928 0.125246
0.072606586 -0.09292838 0.1253754
0.06927292 -0.091997325 0.12376086
0.070623443 -0.091767669 0.12356628
0.07126046 -0.091767669 0.12356628
0.073037006 -0.092150435 0.12389061
0.070960984 -0.091225013 0.12227044
0.07175824 -0.09122026 0.12142666
0.07068114 -0.091065377 0.12045018
0.071324483 -0.091065377 0.12045018
0.071967825 -0.091065377 0.12045018
0.072584733 -0.091141433 0.12051554
0.073870949 -0.091141433 0.12051554
0.069051452 -0.090609565 0.11920892
0.069621816 -0.09083724 0.11940552
0.070267268 -0.09083724 0.11940552
0.070912711 -0.09083724 0.11940552
0.071480274 -0.09106493 0.1196021
0.072098814 -0.091140836 0.11966763
0.072743326 -0.091140836 0.11966763
0.073387839 -0.091140836 0.11966763
0.074032351 -0.091140836 0.11966763
0.069276705 -0.090384901 0.1181608
0.069798648 -0.090763554 0.11848927
0.07042025 -0.090839282 0.11855495
0.07104136 -0.090915009 0.11862066
0.071687981 -0.090915009 0.11862066
0.072282217 -0.091066465 0.11875202
0.072901927 -0.091142192 0.11881775
0.073574513 -0.091066465 0.11875202
0.074193761 -0.091142192 0.11881775
0.068446815 -0.089407608 0.11645108
0.068975553 -0.089785427 0.11678039
0.069476917 -0.09023881 0.11717553
0.06997548 -0.090692177 0.1175707
0.070598722 -0.090767741 0.11763655
0.071221478 -0.09084329 0.11770241
0.071843773 -0.090918869 0.11776827
0.072465606 -0.090994418 0.11783411
0.07306052 -0.091145545 0.11796583
0.073681176 -0.091221109 0.11803171
0.07435517 -0.091145545 0.11796583
0.075056762 -0.090994418 0.11783411
0.068013035 -0.089190587 0.11539532
0.068520486 -0.089642972 0.11579148
0.069074728 -0.089944541 0.11605556
0.069627091 -0.090246126 0.11631969
0.07015232 -0.090623111 0.11664979
0.070777193 -0.09069851 0.11671583
0.071401589 -0.09077391 0.11678185
0.071999565 -0.090924695 0.11691388
0.072570391 -0.091150895 0.11711198
0.073219113 -0.091150895 0.11711198
0.073867843 -0.091150895 0.11711198
0.074516572 -0.091150895 0.11711198
0.068643287 -0.089728817 0.11499849
0.069173895 -0.090104997 0.11532946
0.069752224 -0.090330675 0.11552802
0.070329152 -0.090556368 0.11572659
0.070930168 -0.09070684 0.11585897
0.071504503 -0.090932548 0.11605754
0.072129384 -0.091007754 0.11612374
0.072701395 -0.091233462 0.11632229
0.073351286 -0.091233462 0.11632229
0.073947854 -0.091383904 0.11645468
0.068766087 -0.089816362 0.11420386
0.069347449 -0.090041578 0.11440293
0.069927417 -0.090266749 0.114602
0.070480719 -0.090567023 0.11486742
0.071083143 -0.090717167 0.11500014
0.071684629 -0.090867266 0.11513284
0.072233245 -0.091167539 0.11539826
0.072832383 -0.091317669 0.11553097
0.073430583 -0.091467813 0.11566368
0.074081182 -0.091467813 0.11566368
0.07473179 -0.091467813 0.11566368
0.067695484 -0.089531049 0.11307496
0.068304934 -0.089680851 0.113208
0.06888888 -0.08990556 0.11340757
0.069471426 -0.09013024 0.11360712
0.070077591 -0.090280041 0.11374018
0.070632294 -0.090579659 0.11400625
0.071236119 -0.090729445 0.1141393
0.071839005 -0.090879261 0.11427234
0.072389022 -0.091178864 0.11453845
0.072989583 -0.091328636 0.11467147
0.073589183 -0.091478452 0.11480451
0.074241191 -0.091478452 0.11480451
0.067180529 -0.089547992 0.11220948
0.067767754 -0.08977221 0.11240956
0.068402231 -0.089846939 0.11247624
0.069011673 -0.089996397 0.11260961
0.069570594 -0.090295345 0.11287637
0.070202723 -0.090370074 0.11294305
0.070783868 -0.090594262 0.1131431
0.071389101 -0.090743735 0.11327648
0.071967654 -0.090967953 0.11347656
0.072544813 -0.091192141 0.11367661
0.073172972 -0.09126687 0.11374329
0.073747776 -0.091491088 0.11394337
0.074401192 -0.091491088 0.11394337
0.067275964 -0.089716047 0.11147574
0.067888215 -0.089865178 0.11160944
0.068450883 -0.090163469 0.11187686
0.069085352 -0.09023805 0.11194372
0.069694564 -0.090387166 0.1120774
0.070302837 -0.090536296 0.11221112
0.070935436 -0.090610877 0.11227798
0.071516581 -0.090834588 0.11247854
0.072122037 -0.090983734 0.11261223
0.072700605 -0.09120743 0.11281279
0.07330396 -0.091356561 0.11294651
0.073906377 -0.091505706 0.1130802
0.067347527 -0.089959845 0.11080769
0.067936398 -0.090183049 0.11100873
0.068548188 -0.090331852 0.11114277
0.069183588 -0.090406269 0.11120979
0.069768943 -0.090629473 0.11141086
0.070402943 -0.09070389 0.11147788
0.071036488 -0.090778291 0.11154489
0.071669556 -0.090852663 0.1116119
0.072276421 -0.091001481 0.11174594
0.072856389 -0.0912247 0.11194701
0.073487349 -0.091299102 0.11201403
0.068032756 -0.090353101 0.11027302
0.068621159 -0.090575814 0.11047457
0.069257274 -0.090650052 0.11054173
0.069892913 -0.090724304 0.11060894
0.07052809 -0.090798512 0.11067611
0.071188062 -0.090798512 0.11067611
0.071797036 -0.090947002 0.11081047
0.07240507 -0.091095477 0.11094485
0.073012173 -0.091243953 0.11107922
0.073670745 -0.091243953 0.11107922
0.074329302 -0.091243953 0.11107922
0.068129122 -0.09052448 0.10953596
0.068767115 -0.090598539 0.10960329
0.069404624 -0.090672627 0.10967065
0.070041671 -0.090746686 0.10973799
0.070678249 -0.09082076 0.10980535
0.07133963 -0.09082076 0.10980535
0.071924515 -0.091042981 0.11000741
0.072559454 -0.091117054 0.11007473
0.07319393 -0.091191128 0.11014211
0.073854133 -0.091191128 0.11014211
0.074514329 -0.091191128 0.11014211
0.068297759 -0.09047547 0.10859503
0.068937384 -0.09054935 0.10866253
0.069576539 -0.090623289 0.10873005
0.070240021 -0.090623289 0.10873005
0.070853442 -0.090771094 0.10886508
0.071491197 -0.090844989 0.1089326
0.072153986 -0.090844989 0.1089326
0.072765291 -0.090992808 0.10906763
0.073401645 -0.091066688 0.10913514
0.074037522 -0.091140628 0.10920265
0.068490483 -0.090355009 0.10758407
0.069083333 -0.090576246 0.10778713
0.069723897 -0.090649977 0.10785481
0.070363991 -0.090723708 0.10792249
0.071053669 -0.090649977 0.10785481
0.071693301 -0.090723708 0.10792249
0.072332457 -0.090797469 0.10799018
0.072945409 -0.090944946 0.10812555
0.07360936 -0.090944946 0.10812555
0.074247114 -0.091018677 0.1081932
0.069326587 -0.090310797 0.10663836
0.069944933 -0.090457946 0.10677405
0.070587136 -0.090531513 0.10684189
0.071228862 -0.090605095 0.10690975
0.071870133 -0.090678662 0.10697758
0.072510928 -0.090752259 0.10704544
0.073151253 -0.090825826 0.10711327
0.073765151 -0.09097296 0.10724898
0.074430503 -0.09097296 0.10724898
0.075095855 -0.09097296 0.10724898
0.068900026 -0.090048671 0.10548629
0.069521189 -0.090195507 0.10562231
0.070141405 -0.090342298 0.10575831
0.070810273 -0.090342298 0.10575831
0.071429089 -0.090489119 0.10589434
0.072072223 -0.090562537 0.10596237
0.072689399 -0.090709358 0.1060984
0.073331363 -0.090782762 0.10616638
0.073998831 -0.090782762 0.10616638
0.069189124 -0.089643359 0.10419451
0.06971579 -0.090082839 0.10460359
0.07031332 -0.090302557 0.10480811
0.070983827 -0.090302557 0.10480811
0.071579248 -0.090522304 0.10501266
0.072223797 -0.090595543 0.10508083
0.07286787 -0.090668797 0.10514902
0.073511474 -0.090742037 0.10521717
0.074206538 -0.090668797 0.10514902
0.068635792 -0.089753583 0.10337719
0.069285482 -0.089826673 0.10344554
0.069934718 -0.089899749 0.10351388
0.070509791 -0.09019205 0.10378726
0.071132585 -0.090338215 0.10392395
0.071779475 -0.090411291 0.10399228
0.072451152 -0.090411291 0.10399228
0.073046349 -0.090630502 0.10419729
0.073691584 -0.090703592 0.10426566
0.074388295 -0.090630502 0.10419729
0.068731219 -0.089938357 0.10262671
0.069381848 -0.090011299 0.10269523
0.070007689 -0.090157107 0.10283226
0.070657149 -0.090230018 0.10290076
0.071330935 -0.090230018 0.10290076
0.071954668 -0.090375856 0.10303777
0.072627984 -0.090375856 0.10303777
0.073275812 -0.090448752 0.10310628
0.073897429 -0.090594575 0.10324329
0.074570052 -0.090594575 0.10324329
0.068174608 -0.090051726 0.10180625
0.068850502 -0.090051726 0.10180625
0.069502302 -0.090124488 0.10187493
0.070177965 -0.090124488 0.10187493
0.070853621 -0.090124488 0.10187493
0.071479701 -0.090269968 0.10201228
0.072129861 -0.09034273 0.10208096
0.072804816 -0.09034273 0.10208096
0.073454283 -0.090415463 0.10214961
0.074103266 -0.090488225 0.1022183
0.074803732 -0.090415463 0.10214961
0.075478457 -0.090415463 0.10214961
0.068245478 -0.09031193 0.10112181
0.068969786 -0.090166762 0.10098413
0.069598667 -0.09031193 0.10112181
0.070275269 -0.09031193 0.10112181
0.070951864 -0.09031193 0.10112181
0.071628459 -0.09031193 0.10112181
0.072280027 -0.090384498 0.10119063
0.072931126 -0.090457097 0.10125948
0.073581763 -0.090529665 0.10132831
0.074257657 -0.090529665 0.10132831
0.074933551 -0.090529665 0.10132831
0.075583242 -0.090602249 0.10139717
0.067685813 -0.090428278 0.10029835
0.068363585 -0.090428278 0.10029835
0.069041356 -0.090428278 0.10029835
0.069695033 -0.090500683 0.10036735
0.070372567 -0.090500683 0.10036735
0.071074657 -0.090428278 0.10029835
0.071727633 -0.090500683 0.10036735
0.072405167 -0.090500683 0.10036735
0.073057435 -0.090573102 0.10043637
0.073709242 -0.090645522 0.10050537
0.074386306 -0.090645522 0.10050537
0.067755982 -0.090690777 0.099611565
0.068434462 -0.090690777 0.099611565
0.069112927 -0.090690777 0.099611565
0.069791399 -0.090690777 0.099611565
0.07049419 -0.090618521 0.099542424
0.071148336 -0.090690777 0.099611565
0.071826808 -0.090690777 0.099611565
0.07250528 -0.090690777 0.099611565
0.073158488 -0.090763032 0.099680766
0.073836721 -0.090763032 0.099680766
0.074514955 -0.090763032 0.099680766
0.075193189 -0.090763032 0.099680766
0.067802764 -0.091026351 0.098993152
0.068481706 -0.091026351 0.098993152
0.06916064 -0.091026351 0.098993152
0.06986367 -0.090954274 0.098923817
0.070542842 -0.090954274 0.098923817
0.071271136 -0.09081009 0.098785147
0.071901187 -0.090954274 0.098923817
0.07258036 -0.090954274 0.098923817
0.073259532 -0.090954274 0.098923817
0.073938712 -0.090954274 0.098923817
0.074617878 -0.090954274 0.098923817
0.068576187 -0.09121877 0.098235071
0.069279924 -0.091146842 0.098165557
0.069984123 -0.091074929 0.098096073
0.070640147 -0.091146842 0.098165557
0.071393929 -0.090931088 0.09795706
0.072074741 -0.090931088 0.09795706
0.072755553 -0.090931088 0.09795706
0.073385842 -0.091074929 0.098096073
0.074066184 -0.091074929 0.098096073
0.074746527 -0.091074929 0.098096073
0.069423057 -0.091197252 0.097266644
0.07015276 -0.091053739 0.097127318
0.070834741 -0.091053739 0.097127318
0.071541287 -0.090981975 0.097057641
0.072198704 -0.091053739 0.097127318
0.072880685 -0.091053739 0.097127318
0.073562674 -0.091053739 0.097127318
0.074244663 -0.091053739 0.097127318
0.074926637 -0.091053739 0.097127318
0.069613919 -0.09110643 0.096226066
0.070321389 -0.091034859 0.096156254
0.070980698 -0.09110643 0.096226066
0.071688637 -0.091034859 0.096156254
0.07234747 -0.09110643 0.096226066
0.073005833 -0.091178015 0.096295893
0.073714249 -0.09110643 0.096226066
0.074397638 -0.09110643 0.096226066
0.069804773 -0.091018274 0.095182836
0.070465937 -0.091089696 0.095252857
0.071150973 -0.091089696 0.095252857
0.071811438 -0.091161117 0.095322847
0.072421849 -0.091375396 0.095532864
0.073105939 -0.091375396 0.095532864
0.073840559 -0.091232553 0.095392853
0.074525118 -0.091232553 0.095392853
0.06930849 -0.090932786 0.094136983
0.069995627 -0.090932786 0.094136983
0.070634574 -0.091075301 0.094277307
0.071272597 -0.091217816 0.094417647
0.071958795 -0.091217816 0.094417647
0.072620198 -0.091289058 0.094487816
0.073306166 -0.091289058 0.094487816
0.073966861 -0.091360331 0.094557986
0.074652597 -0.091360331 0.094557986
0.068761684 -0.090992108 0.093229115
0.069450229 -0.090992108 0.093229115
0.070138767 -0.090992108 0.093229115
0.07080321 -0.091063201 0.093299463
0.071467198 -0.091134295 0.093369782
0.072081596 -0.091347545 0.093580768
0.072744168 -0.091418669 0.093651101
0.073431298 -0.091418669 0.093651101
0.0741437 -0.091347545 0.093580768
0.068925403 -0.090982497 0.092248783
0.069639206 -0.090911582 0.092178285
0.070329614 -0.090911582 0.092178285
0.070995942 -0.090982497 0.092248783
0.071613155 -0.091195285 0.092460245
0.07225351 -0.091337115 0.092601255
0.072942518 -0.091337115 0.092601255
0.073631525 -0.091337115 0.092601255
0.07432054 -0.091337115 0.092601255
0.069089122 -0.09097521 0.091266125
0.06982819 -0.090833694 0.091124788
0.070472762 -0.09097521 0.091266125
0.07114049 -0.091045976 0.091336772
0.071832076 -0.091045976 0.091336772
0.072499096 -0.091116741 0.091407448
0.07314086 -0.091258273 0.091548771
0.073806718 -0.091329008 0.091619417
0.074497372 -0.091329008 0.091619417
0.069206059 -0.091111436 0.090422809
0.069946297 -0.090970248 0.090281144
0.070592038 -0.091111436 0.090422809
0.071333215 -0.090970248 0.090281144
0.071978025 -0.091111436 0.090422809
0.072646454 -0.091182038 0.090493605
0.073339209 -0.091182038 0.090493605
0.074006937 -0.09125264 0.090564445
0.074699461 -0.09125264 0.090564445
0.070088036 -0.091038018 0.089364842
0.0707829 -0.091038018 0.089364842
0.071477763 -0.091038018 0.089364842
0.072172627 -0.091038018 0.089364842
0.072842926 -0.091108456 0.089435846
0.073512763 -0.091178879 0.089506805
0.074207157 -0.091178879 0.089506805
0.070324257 -0.090826735 0.088161916
0.070997611 -0.090896994 0.088233069
0.071670488 -0.090967268 0.088304237
0.072367229 -0.090967268 0.088304237
0.073088527 -0.090896994 0.088233069
0.073760696 -0.090967268 0.088304237
0.070702218 -0.090198174 0.086527735
0.071379319 -0.090268269 0.086599052
0.072031848 -0.090408474 0.086741701
0.072683454 -0.090548664 0.08688435
0.073383234 -0.090548664 0.08688435
0.074058227 -0.090618744 0.086955667
0.07098569 -0.089854643 0.085174188
0.071617879 -0.090064436 0.085388675
0.072224572 -0.090344176 0.085674644
0.072902381 -0.090414107 0.085746124
0.073579714 -0.090484008 0.085817605
0.074231781 -0.090623885 0.085960582
0.070492424 -0.089724377 0.084031671
0.071198292 -0.089724377 0.084031671
0.071856454 -0.089863911 0.084174976
0.072417304 -0.090282515 0.084604919
0.073121309 -0.090282515 0.084604919
0.073776186 -0.090422049 0.084748223
0.070843242 -0.089179501 0.082455248
0.071481764 -0.089388296 0.082670689
0.072190441 -0.089388296 0.082670689
0.072850943 -0.089527503 0.082814336
0.073510505 -0.089666709 0.082957983
0.074193694 -0.089736298 0.083029792
0 0 0 1 0 0 0 1 0 0 0 1 0 0 0 0 0 532 1 0 0
