ply
format ascii 1.0
comment PCL generated
element vertex 542
property float x
property float y
property float z
element camera 1
property float view_px
property float view_py
property float view_pz
property float x_axisx
property float x_axisy
property float x_axisz
property float y_axisx
property float y_axisy
property float y_axisz
property float z_axisx
property float z_axisy
property float z_axisz
property float focal
property float scalex
property float scaley
property float centerx
property float centery
property int viewportx
property int viewporty
property float k1
property float k2
end_header
0.068482541 -0.088588044 0.13155422
0.069137327 -0.088509321 0.13149148
0.069766618 -0.088509321 0.13149148
0.070369706 -0.088588044 0.13155422
0.070972323 -0.088666752 0.13161692
0.071574479 -0.088745475 0.13167964
0.067802958 -0.089189947 0.13123517
0.068457045 -0.089111388 0.13117227
0.069085866 -0.089111388 0.13117227
0.069714688 -0.089111388 0.13117227
0.070343509 -0.089111388 0.13117227
0.070945889 -0.089189947 0.13123517
0.071547814 -0.089268491 0.13129804
0.072176166 -0.089268491 0.13129804
0.072750241 -0.089425579 0.1314238
0.067149349 -0.089712799 0.13085373
0.067777701 -0.089712799 0.13085373
0.068431549 -0.089634418 0.13079068
0.069085866 -0.089556038 0.13072763
0.069714688 -0.089556038 0.13072763
0.070317306 -0.089634418 0.13079068
0.070945889 -0.089634418 0.13079068
0.071547814 -0.089712799 0.13085373
0.072122365 -0.089869559 0.13097982
0.072723113 -0.089947909 0.13104284
0.073350765 -0.089947909 0.13104284
0.066471405 -0.090313539 0.13053584
0.067124315 -0.090235338 0.13047263
0.067752436 -0.090235338 0.13047263
0.068406053 -0.090157107 0.13040942
0.069060132 -0.090078905 0.13034621
0.069688715 -0.090078905 0.13034621
0.070291109 -0.090157107 0.13040942
0.070893019 -0.090235338 0.13047263
0.071521141 -0.090235338 0.13047263
0.072122365 -0.090313539 0.13053584
0.072723113 -0.090391725 0.13059902
0.073296025 -0.090548158 0.13072546
0.073923208 -0.090548158 0.13072546
0.066446617 -0.090835541 0.13015521
0.067099288 -0.090757519 0.13009186
0.067727178 -0.090757519 0.13009186
0.068380557 -0.090679482 0.13002849
0.069008671 -0.090679482 0.13002849
0.069636784 -0.090679482 0.13002849
0.070264906 -0.090679482 0.13002849
0.070893019 -0.090679482 0.13002849
0.071494475 -0.090757519 0.13009186
0.072068557 -0.090913609 0.1302186
0.072695971 -0.090913609 0.1302186
0.073296025 -0.090991646 0.13028197
0.073895596 -0.091069698 0.13034534
0.074494705 -0.091147751 0.13040872
0.065769851 -0.091435134 0.12983848
0.066421822 -0.091357261 0.12977494
0.067074262 -0.091279358 0.12971139
0.067676648 -0.091357261 0.12977494
0.068329573 -0.091279358 0.12971139
0.068982944 -0.091201499 0.12964788
0.069610827 -0.091201499 0.12964788
0.070238717 -0.091201499 0.12964788
0.070866592 -0.091201499 0.12964788
0.071494475 -0.091201499 0.12964788
0.072041661 -0.091435134 0.12983848
0.072668836 -0.091435134 0.12983848
0.073296025 -0.091435134 0.12983848
0.073895596 -0.091513023 0.12990203
0.074494705 -0.091590896 0.12996557
0.066372231 -0.091956347 0.12945871
0.067024209 -0.091878608 0.12939501
0.067651391 -0.091878608 0.12939501
0.068304069 -0.091800898 0.12933129
0.068957217 -0.091723174 0.12926759
0.069584869 -0.091723174 0.12926759
0.070238717 -0.091645479 0.1292039
0.070840165 -0.091723174 0.12926759
0.071467817 -0.091723174 0.12926759
0.072068557 -0.091800898 0.12933129
0.072641701 -0.091956347 0.12945871
0.073268652 -0.091956347 0.12945871
0.073895596 -0.091956347 0.12945871
0.074494705 -0.092034042 0.12952241
0.066372231 -0.092399657 0.1290154
0.067024209 -0.092322096 0.12895152
0.067651391 -0.092322096 0.12895152
0.068304069 -0.092244551 0.12888765
0.068957217 -0.09216699 0.12882377
0.069610827 -0.092089459 0.12875992
0.070212521 -0.09216699 0.12882377
0.070866592 -0.092089459 0.12875992
0.071467817 -0.09216699 0.12882377
0.072095469 -0.09216699 0.12882377
0.072668836 -0.092322096 0.12895152
0.073296025 -0.092322096 0.12895152
0.073895596 -0.092399657 0.1290154
0.074494705 -0.092477202 0.12907927
0.067024209 -0.092765585 0.12850803
0.067651391 -0.092765585 0.12850803
0.068304069 -0.092688203 0.128444
0.068957217 -0.092610806 0.12837996
0.069610827 -0.092533439 0.12831593
0.070238717 -0.092533439 0.12831593
0.070893019 -0.092456073 0.1282519
0.071494475 -0.092533439 0.12831593
0.072095469 -0.092610806 0.12837996
0.072695971 -0.092688203 0.128444
0.073296025 -0.092765585 0.12850803
0.073923208 -0.092765585 0.12850803
0.07452254 -0.092842981 0.12857208
0.066999175 -0.093286291 0.12812877
0.067651391 -0.093209058 0.12806454
0.068304069 -0.093131855 0.12800035
0.068957217 -0.093054622 0.12793614
0.069584869 -0.093054622 0.12793614
0.070238717 -0.092977419 0.12787196
0.070945889 -0.092745766 0.12767935
0.071574479 -0.092745766 0.12767935
0.072149262 -0.092900217 0.12780775
0.072750241 -0.092977419 0.12787196
0.073323391 -0.093131855 0.12800035
0.073895596 -0.093286291 0.12812877
0.067676648 -0.093575507 0.1275567
0.068380557 -0.093344361 0.12736361
0.069008671 -0.093344361 0.12736361
0.069662757 -0.093267292 0.12729923
0.070317306 -0.093190253 0.12723486
0.070998751 -0.09303613 0.12710613
0.071627811 -0.09303613 0.12710613
0.072203062 -0.093190253 0.12723486
0.072831646 -0.093190253 0.12723486
0.073378131 -0.0934214 0.12742797
0.068482541 -0.093480945 0.12666132
0.069137327 -0.093404055 0.12659676
0.069948368 -0.09286584 0.12614504
0.070553094 -0.092942744 0.12620957
0.071236648 -0.092788965 0.1260805
0.071841151 -0.09286584 0.12614504
0.072364479 -0.0931734 0.12640318
0.072994463 -0.0931734 0.12640318
0.073542349 -0.093404055 0.12659676
0.074144036 -0.093480945 0.12666132
0.069446087 -0.09292838 0.1253754
0.070233978 -0.092468038 0.12498721
0.070788883 -0.092698216 0.1251813
0.071500987 -0.092468038 0.12498721
0.072107822 -0.092544779 0.12505192
0.070701338 -0.091537982 0.12337168
0.071234263 -0.091844201 0.12363113
0.071897469 -0.091767669 0.12356628
0.072641164 -0.091461435 0.12330681
0.071116768 -0.090766668 0.12188025
0.071705841 -0.090919465 0.12201031
0.072241105 -0.091225013 0.12227044
0.072934501 -0.091072246 0.12214038
0.071246594 -0.090839148 0.12110068
0.07181064 -0.091067806 0.12129626
0.072452568 -0.091067806 0.12129626
0.0701143 -0.090837181 0.12025408
0.070758335 -0.090837181 0.12025408
0.071324483 -0.091065377 0.12045018
0.071967825 -0.091065377 0.12045018
0.072584733 -0.091141433 0.12051554
0.073227838 -0.091141433 0.12051554
0.073870949 -0.091141433 0.12051554
0.069176592 -0.090230092 0.11888129
0.069722869 -0.090533674 0.11914341
0.070369251 -0.090533674 0.11914341
0.070938446 -0.090761334 0.11933997
0.071558163 -0.09083724 0.11940552
0.072098814 -0.091140836 0.11966763
0.072716892 -0.091216713 0.11973315
0.073334508 -0.09129259 0.11979868
0.073978558 -0.09129259 0.11979868
0.068520486 -0.088718906 0.11671555
0.069351785 -0.090157717 0.11796372
0.069924966 -0.090384901 0.1181608
0.07054773 -0.090460643 0.1182265
0.071092822 -0.090763554 0.11848927
0.071687981 -0.090915009 0.11862066
0.072282217 -0.091066465 0.11875202
0.072875492 -0.091217905 0.11888342
0.073521182 -0.091217905 0.11888342
0.07413996 -0.091293648 0.11894912
0.074785404 -0.091293648 0.11894912
0.068569608 -0.089029804 0.1161218
0.069074728 -0.089483172 0.11651693
0.069577031 -0.08993654 0.1169121
0.070051275 -0.090465471 0.11737311
0.070675202 -0.090541065 0.11743897
0.071272932 -0.090692177 0.1175707
0.071869738 -0.09084329 0.11770241
0.072465606 -0.090994418 0.11783411
0.073034085 -0.091221109 0.11803171
0.07365451 -0.091296673 0.11809756
0.074274465 -0.091372252 0.11816342
0.074921079 -0.091372252 0.11816342
0.068037353 -0.089115188 0.11532933
0.068569608 -0.089492172 0.11565943
0.069099523 -0.089869142 0.11598955
0.069627091 -0.090246126 0.11631969
0.070202842 -0.090472341 0.11651775
0.070802689 -0.090623111 0.11664979
0.071427315 -0.09069851 0.11671583
0.071973592 -0.09100011 0.11697993
0.072570391 -0.091150895 0.11711198
0.073166259 -0.09130168 0.11724402
0.073814519 -0.09130168 0.11724402
0.074462779 -0.09130168 0.11724402
0.075056762 -0.091452479 0.11737606
0.068569608 -0.089954525 0.11519708
0.069124311 -0.090255469 0.11546184
0.069727205 -0.090405911 0.11559419
0.070329152 -0.090556368 0.11572659
0.070930168 -0.09070684 0.11585897
0.071530238 -0.090857297 0.11599134
0.072129384 -0.091007754 0.11612374
0.072701395 -0.091233462 0.11632229
0.073351286 -0.091233462 0.11632229
0.073921181 -0.09145917 0.11652087
0.07457038 -0.09145917 0.11652087
0.069248281 -0.090341821 0.11466834
0.069827311 -0.090567023 0.11486742
0.070430197 -0.090717167 0.11500014
0.071057647 -0.090792209 0.11506648
0.071658894 -0.090942353 0.11519919
0.072285175 -0.09101741 0.11526555
0.072832383 -0.091317669 0.11553097
0.07345701 -0.091392756 0.11559734
0.074081182 -0.091467813 0.11566368
0.074704893 -0.09154287 0.11573003
0.069347449 -0.090504766 0.11393975
0.069952451 -0.090654537 0.11407277
0.070581771 -0.090729445 0.1141393
0.07121063 -0.090804338 0.11420581
0.071787544 -0.091029063 0.11440539
0.072389022 -0.091178864 0.11453845
0.072989583 -0.091328636 0.11467147
0.073615611 -0.091403559 0.11473799
0.074241191 -0.091478452 0.11480451
0.068231955 -0.090370074 0.11294305
0.068815202 -0.090594262 0.1131431
0.069471426 -0.090594262 0.1131431
0.07010261 -0.090669006 0.1132098
0.070733346 -0.090743735 0.11327648
0.07133811 -0.090893209 0.11340986
0.071941927 -0.091042683 0.11354323
0.072544813 -0.091192141 0.11367661
0.073172972 -0.09126687 0.11374329
0.073800638 -0.091341615 0.11380999
0.068353578 -0.090461731 0.11214426
0.068962559 -0.090610877 0.11227798
0.069570594 -0.090760022 0.11241169
0.07022775 -0.090760022 0.11241169
0.070859656 -0.090834588 0.11247854
0.071491078 -0.090909168 0.1125454
0.072096311 -0.091058284 0.11267908
0.072700605 -0.09120743 0.11281279
0.07330396 -0.091356561 0.11294651
0.073932804 -0.091431141 0.11301337
0.074587859 -0.091431141 0.11301337
0.068450883 -0.090629473 0.11141086
0.069060795 -0.090778291 0.11154489
0.069719359 -0.090778291 0.11154489
0.070377916 -0.090778291 0.11154489
0.07101123 -0.090852663 0.1116119
0.07164406 -0.090927079 0.11167893
0.072250687 -0.091075897 0.11181296
0.072830424 -0.091299102 0.11201403
0.073487349 -0.091299102 0.11201403
0.074117832 -0.091373518 0.11208105
0.068548188 -0.090798512 0.11067611
0.069183588 -0.090872765 0.1107433
0.069843322 -0.090872765 0.1107433
0.07047803 -0.090947002 0.11081047
0.07108701 -0.091095477 0.11094485
0.071720548 -0.09116973 0.11101204
0.072353609 -0.091243953 0.11107922
0.073012173 -0.091243953 0.11107922
0.073644549 -0.091318175 0.11114639
0.068742782 -0.090672627 0.10967065
0.069380067 -0.090746686 0.10973799
0.070041671 -0.090746686 0.10973799
0.070678249 -0.09082076 0.10980535
0.071314365 -0.090894833 0.1098727
0.071899027 -0.091117054 0.11007473
0.072559454 -0.091117054 0.11007473
0.07319393 -0.091191128 0.11014211
0.073827937 -0.091265187 0.11020944
0.074487902 -0.091265187 0.11020944
0.068345942 -0.09032765 0.10845999
0.068937384 -0.09054935 0.10866253
0.069576539 -0.090623289 0.10873005
0.070240021 -0.090623289 0.10873005
0.070878476 -0.090697169 0.10879757
0.071516462 -0.090771094 0.10886508
0.072102986 -0.090992808 0.10906763
0.072739564 -0.091066688 0.10913514
0.073401645 -0.091066688 0.10913514
0.074037522 -0.091140628 0.10920265
0.074699357 -0.091140628 0.10920265
0.068514571 -0.090281278 0.10751642
0.069156311 -0.090355009 0.10758407
0.069773018 -0.090502486 0.10771945
0.070413575 -0.090576246 0.10778713
0.071053669 -0.090649977 0.10785481
0.071693301 -0.090723708 0.10792249
0.072332457 -0.090797469 0.10799018
0.072945409 -0.090944946 0.10812555
0.07360936 -0.090944946 0.10812555
0.074247114 -0.091018677 0.1081932
0.069326587 -0.090310797 0.10663836
0.069994047 -0.090310797 0.10663836
0.070587136 -0.090531513 0.10684189
0.071253896 -0.090531513 0.10684189
0.071895391 -0.090605095 0.10690975
0.072510928 -0.090752259 0.10704544
0.073151253 -0.090825826 0.10711327
0.073765151 -0.09097296 0.10724898
0.074482903 -0.090825826 0.10711327
0.068851843 -0.090195507 0.10562231
0.069496863 -0.09026891 0.1056903
0.070141405 -0.090342298 0.10575831
0.070810273 -0.090342298 0.10575831
0.071429089 -0.090489119 0.10589434
0.072072223 -0.090562537 0.10596237
0.072689399 -0.090709358 0.1060984
0.073279902 -0.090929583 0.10630241
0.073946901 -0.090929583 0.10630241
0.069020487 -0.090156063 0.10467175
0.069667138 -0.090229318 0.10473993
0.07031332 -0.090302557 0.10480811
0.070983827 -0.090302557 0.10480811
0.071629301 -0.090375811 0.10487629
0.072223797 -0.090595543 0.10508083
0.07286787 -0.090668797 0.10514902
0.073511474 -0.090742037 0.10521717
0.074154615 -0.090815261 0.10528535
0.068516508 -0.09011896 0.10371891
0.069140941 -0.090265125 0.10385559
0.069813095 -0.090265125 0.10385559
0.070485234 -0.090265125 0.10385559
0.071157381 -0.090265125 0.10385559
0.071804494 -0.090338215 0.10392395
0.072451152 -0.090411291 0.10399228
0.073046349 -0.090630502 0.10419729
0.073717318 -0.090630502 0.10419729
0.07436233 -0.090703592 0.10426566
0.068659648 -0.090157107 0.10283226
0.069309577 -0.090230018 0.10290076
0.069983363 -0.090230018 0.10290076
0.070632592 -0.090302944 0.10296927
0.071306139 -0.090302944 0.10296927
0.071979687 -0.090302944 0.10296927
0.072627984 -0.090375856 0.10303777
0.07322482 -0.090594575 0.10324329
0.073897429 -0.090594575 0.10324329
0.074570052 -0.090594575 0.10324329
0.068826646 -0.090124488 0.10187493
0.069454126 -0.090269968 0.10201228
0.07012932 -0.090269968 0.10201228
0.070804507 -0.090269968 0.10201228
0.071479701 -0.090269968 0.10201228
0.072129861 -0.09034273 0.10208096
0.072779559 -0.090415463 0.10214961
0.073454283 -0.090415463 0.10214961
0.074103266 -0.090488225 0.1022183
0.074803732 -0.090415463 0.10214961
0.068898216 -0.090384498 0.10119063
0.069598667 -0.09031193 0.10112181
0.070250943 -0.090384498 0.10119063
0.070927307 -0.090384498 0.10119063
0.071603663 -0.090384498 0.10119063
0.072254993 -0.090457097 0.10125948
0.072931126 -0.090457097 0.10125948
0.073607258 -0.090457097 0.10125948
0.074283384 -0.090457097 0.10125948
0.074959509 -0.090457097 0.10125948
0.069041356 -0.090428278 0.10029835
0.069719121 -0.090428278 0.10029835
0.070396893 -0.090428278 0.10029835
0.0710501 -0.090500683 0.10036735
0.071727633 -0.090500683 0.10036735
0.072405167 -0.090500683 0.10036735
0.073057435 -0.090573102 0.10043637
0.073734738 -0.090573102 0.10043637
0.074412033 -0.090573102 0.10043637
0.075089335 -0.090573102 0.10043637
0.06845808 -0.090618521 0.099542424
0.069112927 -0.090690777 0.099611565
0.069815487 -0.090618521 0.099542424
0.07049419 -0.090618521 0.099542424
0.071172893 -0.090618521 0.099542424
0.071851596 -0.090618521 0.099542424
0.07250528 -0.090690777 0.099611565
0.073183753 -0.090690777 0.099611565
0.073862225 -0.090690777 0.099611565
0.074514955 -0.090763032 0.099680766
0.075193189 -0.090763032 0.099680766
0.068552569 -0.09081009 0.098785147
0.069184497 -0.090954274 0.098923817
0.069911852 -0.09081009 0.098785147
0.070591494 -0.09081009 0.098785147
0.071271136 -0.09081009 0.098785147
0.071901187 -0.090954274 0.098923817
0.07258036 -0.090954274 0.098923817
0.073234275 -0.091026351 0.098993152
0.073938712 -0.090954274 0.098923817
0.074592151 -0.091026351 0.098993152
0.075271092 -0.091026351 0.098993152
0.068694308 -0.09085916 0.097887546
0.069351494 -0.090931088 0.09795706
0.070056401 -0.09085916 0.097887546
0.070737444 -0.09085916 0.097887546
0.071418494 -0.09085916 0.097887546
0.07202515 -0.091074929 0.098096073
0.072705492 -0.091074929 0.098096073
0.073385842 -0.091074929 0.098096073
0.074040696 -0.091146842 0.098165557
0.074746527 -0.091074929 0.098096073
0.068906911 -0.090694949 0.096778959
0.069590062 -0.090694949 0.096778959
0.070273213 -0.090694949 0.096778959
0.070907719 -0.090838462 0.0969183
0.071565844 -0.090910226 0.096987978
0.072223507 -0.090981975 0.097057641
0.072880685 -0.091053739 0.097127318
0.073562674 -0.091053739 0.097127318
0.074193664 -0.091197252 0.097266644
0.074875176 -0.091197252 0.097266644
0.069757059 -0.090676889 0.095807076
0.070417754 -0.090748489 0.095876917
0.071053669 -0.090891674 0.096016586
0.071713202 -0.090963259 0.096086398
0.07234747 -0.09110643 0.096226066
0.073030859 -0.09110643 0.096226066
0.073714249 -0.09110643 0.096226066
0.07437215 -0.091178015 0.096295893
0.069284871 -0.090518311 0.094692856
0.069947906 -0.090589747 0.094762862
0.070562303 -0.090804011 0.094972864
0.071223944 -0.090875447 0.095042869
0.071860559 -0.091018274 0.095182836
0.072521023 -0.091089696 0.095252857
0.073181026 -0.091161117 0.095322847
0.073840559 -0.091232553 0.095392853
0.074525118 -0.091232553 0.095392853
0.068808459 -0.090362713 0.093575656
0.069450229 -0.090505227 0.093715996
0.070091054 -0.090647757 0.09385632
0.070755027 -0.090719014 0.093926504
0.071394227 -0.090861514 0.094066799
0.072032474 -0.091004029 0.094207138
0.072694577 -0.091075301 0.094277307
0.073381245 -0.091075301 0.094277307
0.073992133 -0.091289058 0.094487816
0.074678101 -0.091289058 0.094487816
0.068281531 -0.090352282 0.092596143
0.068948783 -0.09042339 0.092666477
0.069639206 -0.09042339 0.092666477
0.070234194 -0.090707749 0.092947781
0.070899576 -0.090778843 0.093018144
0.071588822 -0.090778843 0.093018144
0.072179824 -0.091063201 0.093299463
0.072868131 -0.091063201 0.093299463
0.073531412 -0.091134295 0.093369782
0.074194223 -0.091205388 0.09344013
0.068397298 -0.09048602 0.091755316
0.069065735 -0.090556949 0.091825798
0.069780938 -0.09048602 0.091755316
0.070448905 -0.090556949 0.091825798
0.071068212 -0.090769738 0.092037305
0.071734779 -0.090840638 0.092107788
0.072376303 -0.090982497 0.092248783
0.07306648 -0.090982497 0.092248783
0.073756658 -0.090982497 0.092248783
0.07439632 -0.091124356 0.092389777
0.06846676 -0.090762943 0.091054142
0.069182672 -0.090692177 0.090983465
0.069875434 -0.090692177 0.090983465
0.070568189 -0.090692177 0.090983465
0.071260944 -0.090692177 0.090983465
0.071905054 -0.090833694 0.091124788
0.07259734 -0.090833694 0.091124788
0.073289625 -0.090833694 0.091124788
0.073931858 -0.09097521 0.091266125
0.074623674 -0.09097521 0.091266125
0.068559378 -0.090970248 0.090281144
0.069276229 -0.090899646 0.090210304
0.069993541 -0.090829059 0.090139478
0.070735186 -0.090687856 0.089997828
0.071381398 -0.090829059 0.090139478
0.07207533 -0.090829059 0.090139478
0.072744697 -0.090899646 0.090210304
0.073413588 -0.090970248 0.090281144
0.074107051 -0.090970248 0.090281144
0.068651997 -0.091178879 0.089506805
0.069393165 -0.091038018 0.089364842
0.070111655 -0.090967596 0.089293852
0.070854463 -0.090826735 0.089151859
0.071501851 -0.090967596 0.089293852
0.072172627 -0.091038018 0.089364842
0.072892047 -0.090967596 0.089293852
0.073587142 -0.090967596 0.089293852
0.074282244 -0.090967596 0.089293852
0.068814076 -0.091178045 0.088517696
0.069580272 -0.090967268 0.088304237
0.070300639 -0.090896994 0.088233069
0.07102146 -0.090826735 0.088161916
0.07171867 -0.090826735 0.088161916
0.072391555 -0.090896994 0.088233069
0.073113084 -0.090826735 0.088161916
0.073785499 -0.090896994 0.088233069
0.068976156 -0.091179535 0.087526262
0.069697209 -0.091109455 0.08745496
0.070489615 -0.090829059 0.087169647
0.071164608 -0.090899155 0.087240964
0.071983665 -0.090548664 0.08688435
0.072659135 -0.090618744 0.086955667
0.073358677 -0.090618744 0.086955667
0.073959053 -0.090899155 0.087240964
0.069369778 -0.090484008 0.085817605
0.070071429 -0.090484008 0.085817605
0.070796706 -0.090414107 0.085746124
0.071498595 -0.090414107 0.085746124
0.072176397 -0.090484008 0.085817605
0.072878055 -0.090484008 0.085817605
0.073579714 -0.090484008 0.085817605
0.074206978 -0.090693831 0.086032078
0.069601312 -0.090282515 0.084604919
0.07030531 -0.090282515 0.084604919
0.07105656 -0.09014298 0.0844616
0.071713306 -0.090282515 0.084604919
0.072369121 -0.090422049 0.084748223
0.073024005 -0.090561569 0.084891543
0.073702507 -0.090631336 0.084963188
0.070064396 -0.089388296 0.082670689
0.070819855 -0.089249104 0.082527041
0.071481764 -0.089388296 0.082670689
0.072047301 -0.089805916 0.08310163
0.072706394 -0.089945123 0.083245263
0.073486187 -0.089736298 0.083029792
0.074070893 -0.090084314 0.08338891
0 0 0 1 0 0 0 1 0 0 0 1 0 0 0 0 0 542 1 0 0
