ply
format ascii 1.0
comment PCL generated
element vertex 526
property float x
property float y
property float z
element camera 1
property float view_px
property float view_py
property float view_pz
property float x_axisx
property float x_axisy
property float x_axisz
property float y_axisx
property float y_axisy
property float y_axisz
property float z_axisx
property float z_axisy
property float z_axisz
property float focal
property float scalex
property float scaley
property float centerx
property float centery
property int viewportx
property int viewporty
property float k1
property float k2
end_header
0.069008671 -0.088902891 0.13180508
0.069688715 -0.088745475 0.13167964
0.070291109 -0.088824168 0.13174236
0.070919462 -0.088824168 0.13174236
0.067752436 -0.089347035 0.13136092
0.068380557 -0.089347035 0.13136092
0.069008671 -0.089347035 0.13136092
0.069662757 -0.089268491 0.13129804
0.070291109 -0.089268491 0.13129804
0.070893019 -0.089347035 0.13136092
0.071547814 -0.089268491 0.13129804
0.072176166 -0.089268491 0.13129804
0.067074262 -0.089947909 0.13104284
0.067727178 -0.089869559 0.13097982
0.068380557 -0.089791179 0.13091677
0.069008671 -0.089791179 0.13091677
0.069662757 -0.089712799 0.13085373
0.070291109 -0.089712799 0.13085373
0.070919462 -0.089712799 0.13085373
0.071547814 -0.089712799 0.13085373
0.072149262 -0.089791179 0.13091677
0.072750241 -0.089869559 0.13097982
0.073350765 -0.089947909 0.13104284
0.066421822 -0.090469956 0.13066225
0.067074262 -0.090391725 0.13059902
0.067701921 -0.090391725 0.13059902
0.068355061 -0.090313539 0.13053584
0.068982944 -0.090313539 0.13053584
0.069610827 -0.090313539 0.13053584
0.070264906 -0.090235338 0.13047263
0.070893019 -0.090235338 0.13047263
0.071521141 -0.090235338 0.13047263
0.072122365 -0.090313539 0.13053584
0.072750241 -0.090313539 0.13053584
0.073323391 -0.090469956 0.13066225
0.073950805 -0.090469956 0.13066225
0.066421822 -0.090913609 0.1302186
0.067049235 -0.090913609 0.1302186
0.067676648 -0.090913609 0.1302186
0.068329573 -0.090835541 0.13015521
0.068982944 -0.090757519 0.13009186
0.069610827 -0.090757519 0.13009186
0.070264906 -0.090679482 0.13002849
0.070840165 -0.090835541 0.13015521
0.071494475 -0.090757519 0.13009186
0.072095469 -0.090835541 0.13015521
0.072695971 -0.090913609 0.1302186
0.073350765 -0.090835541 0.13015521
0.073923208 -0.090991646 0.13028197
0.065769851 -0.091435134 0.12983848
0.066397026 -0.091435134 0.12983848
0.067049235 -0.091357261 0.12977494
0.067676648 -0.091357261 0.12977494
0.068329573 -0.091279358 0.12971139
0.068957217 -0.091279358 0.12971139
0.069584869 -0.091279358 0.12971139
0.070238717 -0.091201499 0.12964788
0.070866592 -0.091201499 0.12964788
0.071494475 -0.091201499 0.12964788
0.072095469 -0.091279358 0.12971139
0.072668836 -0.091435134 0.12983848
0.073296025 -0.091435134 0.12983848
0.073923208 -0.091435134 0.12983848
0.07452254 -0.091513023 0.12990203
0.065745287 -0.091956347 0.12945871
0.066372231 -0.091956347 0.12945871
0.067049235 -0.091800898 0.12933129
0.067676648 -0.091800898 0.12933129
0.068304069 -0.091800898 0.12933129
0.068931475 -0.091800898 0.12933129
0.069584869 -0.091723174 0.12926759
0.070212521 -0.091723174 0.12926759
0.070866592 -0.091645479 0.1292039
0.071441144 -0.091800898 0.12933129
0.072068557 -0.091800898 0.12933129
0.072695971 -0.091800898 0.12933129
0.073296025 -0.091878608 0.12939501
0.073923208 -0.091878608 0.12939501
0.074494705 -0.092034042 0.12952241
0.066372231 -0.092399657 0.1290154
0.067024209 -0.092322096 0.12895152
0.067676648 -0.092244551 0.12888765
0.068278573 -0.092322096 0.12895152
0.068957217 -0.09216699 0.12882377
0.069584869 -0.09216699 0.12882377
0.070238717 -0.092089459 0.12875992
0.070866592 -0.092089459 0.12875992
0.071467817 -0.09216699 0.12882377
0.072095469 -0.09216699 0.12882377
0.072723113 -0.09216699 0.12882377
0.073296025 -0.092322096 0.12895152
0.073923208 -0.092322096 0.12895152
0.074550383 -0.092322096 0.12895152
0.066397026 -0.092765585 0.12850803
0.067024209 -0.092765585 0.12850803
0.067676648 -0.092688203 0.128444
0.068329573 -0.092610806 0.12837996
0.068957217 -0.092610806 0.12837996
0.069584869 -0.092610806 0.12837996
0.070238717 -0.092533439 0.12831593
0.070866592 -0.092533439 0.12831593
0.071494475 -0.092533439 0.12831593
0.072095469 -0.092610806 0.12837996
0.072723113 -0.092610806 0.12837996
0.073323391 -0.092688203 0.128444
0.073923208 -0.092765585 0.12850803
0.07452254 -0.092842981 0.12857208
0.067049235 -0.093131855 0.12800035
0.067701921 -0.093054622 0.12793614
0.068380557 -0.092900217 0.12780775
0.068957217 -0.093054622 0.12793614
0.069610827 -0.092977419 0.12787196
0.070317306 -0.092745766 0.12767935
0.070945889 -0.092745766 0.12767935
0.071574479 -0.092745766 0.12767935
0.072122365 -0.092977419 0.12787196
0.072750241 -0.092977419 0.12787196
0.073350765 -0.093054622 0.12793614
0.073950805 -0.093131855 0.12800035
0.067752436 -0.093344361 0.12736361
0.068406053 -0.093267292 0.12729923
0.069034405 -0.093267292 0.12729923
0.069662757 -0.093267292 0.12729923
0.070317306 -0.093190253 0.12723486
0.070919462 -0.093267292 0.12729923
0.071547814 -0.093267292 0.12729923
0.072176166 -0.093267292 0.12729923
0.072750241 -0.0934214 0.12742797
0.073350765 -0.093498439 0.12749232
0.073950805 -0.093575507 0.1275567
0.068005055 -0.09301962 0.12627411
0.068635523 -0.09301962 0.12627411
0.069214515 -0.0931734 0.12640318
0.069896437 -0.09301962 0.12627411
0.070526898 -0.09301962 0.12627411
0.071104489 -0.0931734 0.12640318
0.071681149 -0.09332718 0.12653224
0.072283775 -0.093404055 0.12659676
0.072858788 -0.093557835 0.12672584
0.07343287 -0.093711615 0.12685493
0.068763003 -0.093081817 0.12550482
0.069343165 -0.093235269 0.12563421
0.070000298 -0.093158528 0.12556949
0.070631698 -0.093158528 0.12556949
0.071236648 -0.093235269 0.12563421
0.071841151 -0.093311965 0.12569889
0.072364479 -0.09361887 0.12595771
0.072913058 -0.093849018 0.1261518
0.073542349 -0.093849018 0.1261518
0.070467658 -0.092226982 0.12395546
0.071024671 -0.092456669 0.12415007
0.071686015 -0.092380106 0.12408519
0.07224115 -0.092609778 0.1242798
0.071454301 -0.090685084 0.12012337
0.072151214 -0.090532973 0.11999264
0.072849058 -0.090380847 0.11986192
0.073521182 -0.090304777 0.11979654
0.069697611 -0.090609565 0.11920892
0.070318259 -0.090685472 0.11927447
0.070964172 -0.090685472 0.11927447
0.071636058 -0.090609565 0.11920892
0.072308414 -0.090533674 0.11914341
0.072954789 -0.090533674 0.11914341
0.073681176 -0.090305999 0.11894682
0.07435517 -0.090230092 0.11888129
0.069376811 -0.09008202 0.11789802
0.069874443 -0.090536371 0.11829217
0.070471242 -0.090687811 0.11842357
0.071118556 -0.090687811 0.11842357
0.071739912 -0.090763554 0.11848927
0.072387002 -0.090763554 0.11848927
0.07306052 -0.090687811 0.11842357
0.073787846 -0.090460643 0.1182265
0.068975553 -0.089785427 0.11678039
0.069501951 -0.090163231 0.11710967
0.070101798 -0.090314358 0.1172414
0.070649713 -0.090616614 0.11750482
0.071272932 -0.090692177 0.1175707
0.071921661 -0.090692177 0.1175707
0.072570391 -0.090692177 0.1175707
0.073219113 -0.090692177 0.1175707
0.073921181 -0.090541065 0.11743897
0.068692401 -0.089115188 0.11532933
0.069124311 -0.089793772 0.11592354
0.069702171 -0.090019941 0.11612161
0.07027863 -0.090246126 0.11631969
0.070828184 -0.090547711 0.11658378
0.07145305 -0.090623111 0.11664979
0.072077453 -0.09069851 0.11671583
0.072727591 -0.09069851 0.11671583
0.073351286 -0.09077391 0.11678185
0.074001186 -0.09077391 0.11678185
0.074677989 -0.09069851 0.11671583
0.069248281 -0.089879289 0.11513087
0.069802284 -0.090180218 0.11539564
0.070379682 -0.090405911 0.11559419
0.070981167 -0.090556368 0.11572659
0.071555965 -0.090782076 0.11592516
0.072155342 -0.090932548 0.11605754
0.07280618 -0.090932548 0.11605754
0.073430583 -0.091007754 0.11612374
0.074081182 -0.091007754 0.11612374
0.07473179 -0.091007754 0.11612374
0.068032756 -0.088014796 0.11261132
0.069421835 -0.089816362 0.11420386
0.069977477 -0.090116635 0.11446927
0.070531249 -0.090416893 0.11473471
0.071108639 -0.090642095 0.11493376
0.071710356 -0.090792209 0.11506648
0.072311133 -0.090942353 0.11519919
0.072937183 -0.09101741 0.11526555
0.073536314 -0.091167539 0.11539826
0.074161187 -0.091242626 0.11546463
0.074812494 -0.091242626 0.11546463
0.068201393 -0.087958157 0.11167802
0.068523854 -0.089006752 0.11260931
0.069545805 -0.08990556 0.11340757
0.07010261 -0.090205148 0.11367366
0.070657551 -0.090504766 0.11393975
0.071261622 -0.090654537 0.11407277
0.071864739 -0.090804338 0.11420581
0.072414994 -0.091103956 0.1144719
0.073015779 -0.091253743 0.11460495
0.07366848 -0.091253743 0.11460495
0.07429453 -0.091328636 0.11467147
0.074920096 -0.091403559 0.11473799
0.067681521 -0.087978572 0.11080907
0.068177305 -0.088501707 0.11127588
0.068621159 -0.089174315 0.11187606
0.069159031 -0.089547992 0.11220948
0.069694564 -0.089921653 0.11254291
0.07022775 -0.090295345 0.11287637
0.070809126 -0.090519547 0.11307642
0.07141459 -0.090669006 0.1132098
0.071967654 -0.090967953 0.11347656
0.072544813 -0.091192141 0.11367661
0.073172972 -0.09126687 0.11374329
0.073800638 -0.091341615 0.11380999
0.074401192 -0.091491088 0.11394337
0.067753091 -0.088224679 0.1101387
0.068249576 -0.088746667 0.11060666
0.068718463 -0.089343205 0.11114147
0.069257274 -0.089716047 0.11147574
0.069768943 -0.090163469 0.11187686
0.070352897 -0.090387166 0.1120774
0.070960701 -0.090536296 0.11221112
0.071516581 -0.090834588 0.11247854
0.072096311 -0.091058284 0.11267908
0.072700605 -0.09120743 0.11281279
0.073277757 -0.091431141 0.11301337
0.073879942 -0.091580257 0.11314705
0.067776948 -0.088620573 0.10960136
0.068273671 -0.089141399 0.11007048
0.068840086 -0.08943902 0.11033857
0.069330946 -0.089959845 0.11080769
0.069892913 -0.090257466 0.11107577
0.07047803 -0.090480655 0.11127682
0.071061745 -0.09070389 0.11147788
0.07164406 -0.090927079 0.11167893
0.072199225 -0.0912247 0.11194701
0.072830424 -0.091299102 0.11201403
0.073434956 -0.09144792 0.11214805
0.074064977 -0.091522306 0.11221506
0.067206085 -0.088794112 0.10886215
0.067824662 -0.088942587 0.10899651
0.068370037 -0.089313775 0.10933243
0.068913057 -0.089684978 0.10966836
0.069453746 -0.090056151 0.11000428
0.070016876 -0.090353101 0.11027302
0.070578143 -0.090650052 0.11054173
0.07121332 -0.090724304 0.11060894
0.071746044 -0.091095477 0.11094485
0.072353609 -0.091243953 0.11107922
0.072960243 -0.091392428 0.11121358
0.073565945 -0.091540903 0.11134796
0.066703513 -0.088746756 0.10791957
0.067276955 -0.089043036 0.10818896
0.067872375 -0.089265242 0.10839102
0.068418212 -0.089635611 0.10872777
0.069010362 -0.089857832 0.10892981
0.069601104 -0.090080038 0.10913184
0.070165642 -0.090376332 0.10940126
0.070753336 -0.090598539 0.10960329
0.071364895 -0.090746686 0.10973799
0.071924515 -0.091042981 0.11000741
0.072533719 -0.091191128 0.11014211
0.073142 -0.091339275 0.11027679
0.073775537 -0.091413334 0.11034414
0.066797063 -0.08892341 0.1071772
0.067347817 -0.089292958 0.1075148
0.067943946 -0.089514673 0.10771732
0.068538666 -0.089736387 0.10791987
0.069156311 -0.089884207 0.10805489
0.069748454 -0.090105921 0.10825744
0.070363991 -0.090253726 0.10839248
0.070928529 -0.09054935 0.10866253
0.071541727 -0.090697169 0.10879757
0.072102986 -0.090992808 0.10906763
0.072739564 -0.091066688 0.10913514
0.073349714 -0.091214508 0.10927017
0.073985122 -0.091288432 0.10933769
0.06682045 -0.089322656 0.10663655
0.067418687 -0.089543864 0.1068396
0.068659119 -0.089838833 0.10711032
0.069277935 -0.089986309 0.10724568
0.069895811 -0.090133786 0.10738105
0.070512749 -0.090281278 0.10751642
0.071103722 -0.090502486 0.10771945
0.071693301 -0.090723708 0.10792249
0.072281457 -0.090944946 0.10812555
0.072919682 -0.091018677 0.1081932
0.073557429 -0.091092438 0.1082609
0.067536801 -0.089648619 0.10602775
0.068158656 -0.089795783 0.10616343
0.068755485 -0.090016484 0.10636698
0.069375239 -0.090163648 0.10650267
0.070018604 -0.09023723 0.10657053
0.070661515 -0.090310797 0.10663836
0.071253896 -0.090531513 0.10684189
0.071870133 -0.090678662 0.10697758
0.072510928 -0.090752259 0.10704544
0.067654915 -0.089755028 0.10521422
0.068230227 -0.090048671 0.10548629
0.068875939 -0.090122074 0.10555428
0.069545515 -0.090122074 0.10555428
0.070190519 -0.090195507 0.10562231
0.070835069 -0.09026891 0.1056903
0.071429089 -0.090489119 0.10589434
0.072072223 -0.090562537 0.10596237
0.072714895 -0.09063594 0.10603037
0.073998831 -0.090782762 0.10616638
0.067773022 -0.089863107 0.10439906
0.06834951 -0.090156063 0.10467175
0.069020487 -0.090156063 0.10467175
0.069691464 -0.090156063 0.10467175
0.070337877 -0.090229318 0.10473993
0.070983827 -0.090302557 0.10480811
0.071629301 -0.090375811 0.10487629
0.072223797 -0.090595543 0.10508083
0.072893374 -0.090595543 0.10508083
0.073537201 -0.090668797 0.10514902
0.067891143 -0.089972809 0.1035822
0.068492651 -0.09019205 0.10378726
0.069140941 -0.090265125 0.10385559
0.069813095 -0.090265125 0.10385559
0.070509791 -0.09019205 0.10378726
0.071182176 -0.09019205 0.10378726
0.071804494 -0.090338215 0.10392395
0.072451152 -0.090411291 0.10399228
0.073122837 -0.090411291 0.10399228
0.073743045 -0.090557456 0.10412897
0.068635792 -0.090230018 0.10290076
0.069285482 -0.090302944 0.10296927
0.069959037 -0.090302944 0.10296927
0.070657149 -0.090230018 0.10290076
0.071306139 -0.090302944 0.10296927
0.072004721 -0.090230018 0.10290076
0.072653241 -0.090302944 0.10296927
0.0733523 -0.090230018 0.10290076
0.074000344 -0.090302944 0.10296927
0.068755075 -0.09034273 0.10208096
0.069430031 -0.09034273 0.10208096
0.070104994 -0.09034273 0.10208096
0.070779949 -0.09034273 0.10208096
0.071479701 -0.090269968 0.10201228
0.072129861 -0.09034273 0.10208096
0.072804816 -0.09034273 0.10208096
0.073479779 -0.09034273 0.10208096
0.074154727 -0.09034273 0.10208096
0.068898216 -0.090384498 0.10119063
0.06957458 -0.090384498 0.10119063
0.070250943 -0.090384498 0.10119063
0.070927307 -0.090384498 0.10119063
0.071603663 -0.090384498 0.10119063
0.072280027 -0.090384498 0.10119063
0.072956391 -0.090384498 0.10119063
0.073632762 -0.090384498 0.10119063
0.074309118 -0.090384498 0.10119063
0.0690175 -0.090500683 0.10036735
0.069695033 -0.090500683 0.10036735
0.070372567 -0.090500683 0.10036735
0.0710501 -0.090500683 0.10036735
0.071752422 -0.090428278 0.10029835
0.072405167 -0.090500683 0.10036735
0.073107958 -0.090428278 0.10029835
0.073760234 -0.090500683 0.10036735
0.074437767 -0.090500683 0.10036735
0.075141266 -0.090428278 0.10029835
0.069136783 -0.090618521 0.099542424
0.069815487 -0.090618521 0.099542424
0.070518523 -0.090546265 0.099473238
0.071172893 -0.090618521 0.099542424
0.071851596 -0.090618521 0.099542424
0.072530299 -0.090618521 0.099542424
0.07320901 -0.090618521 0.099542424
0.073887713 -0.090618521 0.099542424
0.074592151 -0.090546265 0.099473238
0.069232211 -0.09081009 0.098785147
0.06993594 -0.090738028 0.098715812
0.070615813 -0.090738028 0.098715812
0.071295694 -0.090738028 0.098715812
0.071950771 -0.09081009 0.098785147
0.072655439 -0.090738028 0.098715812
0.07333532 -0.090738028 0.098715812
0.074015193 -0.090738028 0.098715812
0.074695066 -0.090738028 0.098715812
0.068717927 -0.090787247 0.097818047
0.069375351 -0.09085916 0.097887546
0.070056401 -0.09085916 0.097887546
0.07076177 -0.090787247 0.097818047
0.071467601 -0.090715349 0.097748548
0.072124325 -0.090787247 0.097818047
0.072780579 -0.09085916 0.097887546
0.073486887 -0.090787247 0.097818047
0.07414268 -0.09085916 0.097887546
0.074823722 -0.09085916 0.097887546
0.069590062 -0.090694949 0.096778959
0.070297301 -0.0906232 0.096709296
0.070956372 -0.090694949 0.096778959
0.071590409 -0.090838462 0.0969183
0.07227309 -0.090838462 0.0969183
0.072930746 -0.090910226 0.096987978
0.073613197 -0.090910226 0.096987978
0.074270159 -0.090981975 0.097057641
0.074952371 -0.090981975 0.097057641
0.069780916 -0.090605319 0.095737234
0.070465937 -0.090605319 0.095737234
0.071102321 -0.090748489 0.095876917
0.071713202 -0.090963259 0.096086398
0.072372258 -0.091034859 0.096156254
0.073055878 -0.091034859 0.096156254
0.073739506 -0.091034859 0.096156254
0.074423134 -0.091034859 0.096156254
0.069261245 -0.090589747 0.094762862
0.069947906 -0.090589747 0.094762862
0.070562303 -0.090804011 0.094972864
0.071223944 -0.090875447 0.095042869
0.071835995 -0.091089696 0.095252857
0.072521023 -0.091089696 0.095252857
0.073206052 -0.091089696 0.095252857
0.073865823 -0.091161117 0.095322847
0.074550621 -0.091161117 0.095322847
0.068714909 -0.090647757 0.09385632
0.069379352 -0.090719014 0.093926504
0.07006719 -0.090719014 0.093926504
0.070755027 -0.090719014 0.093926504
0.071369894 -0.090932786 0.094136983
0.072007909 -0.091075301 0.094277307
0.072644986 -0.091217816 0.094417647
0.073331185 -0.091217816 0.094417647
0.074017391 -0.091217816 0.094417647
0.068855241 -0.090707749 0.092947781
0.069544718 -0.090707749 0.092947781
0.070234194 -0.090707749 0.092947781
0.070899576 -0.090778843 0.093018144
0.071515851 -0.090992108 0.093229115
0.072179824 -0.091063201 0.093299463
0.07281854 -0.091205388 0.09344013
0.073506378 -0.091205388 0.09344013
0.074194223 -0.091205388 0.09344013
0.069065735 -0.090556949 0.091825798
0.069733694 -0.090627879 0.09189631
0.070377328 -0.090769738 0.092037305
0.071068212 -0.090769738 0.092037305
0.071710445 -0.090911582 0.092178285
0.072376303 -0.090982497 0.092248783
0.07306648 -0.090982497 0.092248783
0.073706605 -0.091124356 0.092389777
0.068489917 -0.090692177 0.090983465
0.069159284 -0.090762943 0.091054142
0.069875434 -0.090692177 0.090983465
0.070568189 -0.090692177 0.090983465
0.071236849 -0.090762943 0.091054142
0.071856402 -0.09097521 0.091266125
0.072523661 -0.091045976 0.091336772
0.073215246 -0.091045976 0.091336772
0.073906831 -0.091045976 0.091336772
0.074573152 -0.091116741 0.091407448
0.069299616 -0.090829059 0.090139478
0.070040792 -0.090687856 0.089997828
0.070687473 -0.090829059 0.090139478
0.07135731 -0.090899646 0.090210304
0.072051004 -0.090899646 0.090210304
0.072720133 -0.090970248 0.090281144
0.073413588 -0.090970248 0.090281144
0.07405699 -0.091111436 0.090422809
0.069416553 -0.090967596 0.089293852
0.070111655 -0.090967596 0.089293852
0.070806749 -0.090967596 0.089293852
0.071477763 -0.091038018 0.089364842
0.072196953 -0.090967596 0.089293852
0.072892047 -0.090967596 0.089293852
0.073562354 -0.091038018 0.089364842
0.069673829 -0.090686202 0.088019595
0.070418753 -0.090545684 0.087877274
0.071069174 -0.090686202 0.088019595
0.071694583 -0.090896994 0.088233069
0.072415873 -0.090826735 0.088161916
0.073162198 -0.090686202 0.088019595
0.07385987 -0.090686202 0.088019595
0.06981416 -0.09075895 0.087098315
0.070607729 -0.090478584 0.086813033
0.071331598 -0.090408474 0.086741701
0.072007753 -0.090478584 0.086813033
0.072683454 -0.090548664 0.08688435
0.073383234 -0.090548664 0.08688435
0.070211753 -0.090064436 0.085388675
0.070867576 -0.090204298 0.085531667
0.071570165 -0.090204298 0.085531667
0.072200485 -0.090414107 0.085746124
0.072878055 -0.090484008 0.085817605
0.073579714 -0.090484008 0.085817605
0.070469029 -0.089794159 0.084103331
0.071103804 -0.090003446 0.08431828
0.07176102 -0.09014298 0.0844616
0.072417304 -0.090282515 0.084604919
0.073096983 -0.090352282 0.084676549
0.073800743 -0.090352282 0.084676549
0.06951616 -0.088901088 0.082167953
0.070157014 -0.089109898 0.082383409
0.070819855 -0.089249104 0.082527041
0.071529008 -0.089249104 0.082527041
0.072166584 -0.089457914 0.082742527
0.072899126 -0.089388296 0.082670689
0.07360781 -0.089388296 0.082670689
0.07429193 -0.089457914 0.082742527
0 0 0 1 0 0 0 1 0 0 0 1 0 0 0 0 0 526 1 0 0
