ply
format ascii 1.0
comment PCL generated
element vertex 518
property float x
property float y
property float z
element camera 1
property float view_px
property float view_py
property float view_pz
property float x_axisx
property float x_axisy
property float x_axisz
property float y_axisx
property float y_axisy
property float y_axisz
property float z_axisx
property float z_axisy
property float z_axisz
property float focal
property float scalex
property float scaley
property float centerx
property float centery
property int viewportx
property int viewporty
property float k1
property float k2
end_header
0.068559036 -0.088351905 0.13136606
0.069188789 -0.088351905 0.13136606
0.069792576 -0.088430643 0.13142878
0.070422105 -0.088430643 0.13142878
0.071025193 -0.088509321 0.13149148
0.071627811 -0.088588044 0.13155422
0.067853481 -0.089032859 0.1311094
0.068508044 -0.0889543 0.13104652
0.069137327 -0.0889543 0.13104652
0.069792576 -0.088875771 0.13098364
0.070395909 -0.0889543 0.13104652
0.070998751 -0.089032859 0.1311094
0.071601145 -0.089111388 0.13117227
0.072229974 -0.089111388 0.13117227
0.072804518 -0.089268491 0.13129804
0.067174368 -0.089634418 0.13079068
0.067853481 -0.089477658 0.13066459
0.068482541 -0.089477658 0.13066459
0.069137327 -0.089399278 0.13060154
0.069740646 -0.089477658 0.13066459
0.070369706 -0.089477658 0.13066459
0.070998751 -0.089477658 0.13066459
0.071601145 -0.089556038 0.13072763
0.072176166 -0.089712799 0.13085373
0.072777376 -0.089791179 0.13091677
0.073378131 -0.089869559 0.13097982
0.066520996 -0.090157107 0.13040942
0.067174368 -0.090078905 0.13034621
0.067828223 -0.090000674 0.130283
0.068457045 -0.090000674 0.130283
0.069085866 -0.090000674 0.130283
0.069740646 -0.089922473 0.13021979
0.070343509 -0.090000674 0.130283
0.070945889 -0.090078905 0.13034621
0.071574479 -0.090078905 0.13034621
0.072176166 -0.090157107 0.13040942
0.072750241 -0.090313539 0.13053584
0.073350765 -0.090391725 0.13059902
0.073950805 -0.090469956 0.13066225
0.066496201 -0.090679482 0.13002849
0.067149349 -0.090601414 0.1299651
0.067752436 -0.090679482 0.13002849
0.068380557 -0.090679482 0.13002849
0.069060132 -0.090523377 0.12990174
0.069688715 -0.090523377 0.12990174
0.070291109 -0.090601414 0.1299651
0.070919462 -0.090601414 0.1299651
0.071521141 -0.090679482 0.13002849
0.072122365 -0.090757519 0.13009186
0.072723113 -0.090835541 0.13015521
0.073350765 -0.090835541 0.13015521
0.073923208 -0.090991646 0.13028197
0.065843523 -0.091201499 0.12964788
0.066471405 -0.091201499 0.12964788
0.067099288 -0.091201499 0.12964788
0.067727178 -0.091201499 0.12964788
0.068380557 -0.091123626 0.12958434
0.069008671 -0.091123626 0.12958434
0.069636784 -0.091123626 0.12958434
0.070264906 -0.091123626 0.12958434
0.070893019 -0.091123626 0.12958434
0.071494475 -0.091201499 0.12964788
0.072122365 -0.091201499 0.12964788
0.072695971 -0.091357261 0.12977494
0.073323391 -0.091357261 0.12977494
0.073950805 -0.091357261 0.12977494
0.07452254 -0.091513023 0.12990203
0.065818965 -0.091723174 0.12926759
0.066446617 -0.091723174 0.12926759
0.067074262 -0.091723174 0.12926759
0.067727178 -0.091645479 0.1292039
0.068355061 -0.091645479 0.1292039
0.069008671 -0.09156777 0.1291402
0.069636784 -0.09156777 0.1291402
0.070238717 -0.091645479 0.1292039
0.070893019 -0.09156777 0.1291402
0.071494475 -0.091645479 0.1292039
0.072122365 -0.091645479 0.1292039
0.072723113 -0.091723174 0.12926759
0.073323391 -0.091800898 0.12933129
0.073923208 -0.091878608 0.12939501
0.07452254 -0.091956347 0.12945871
0.066446617 -0.09216699 0.12882377
0.067074262 -0.09216699 0.12882377
0.067701921 -0.09216699 0.12882377
0.068355061 -0.092089459 0.12875992
0.068982944 -0.092089459 0.12875992
0.069636784 -0.092011914 0.12869605
0.070264906 -0.092011914 0.12869605
0.070866592 -0.092089459 0.12875992
0.071494475 -0.092089459 0.12875992
0.072122365 -0.092089459 0.12875992
0.072723113 -0.09216699 0.12882377
0.073323391 -0.092244551 0.12888765
0.073950805 -0.092244551 0.12888765
0.07452254 -0.092399657 0.1290154
0.066446617 -0.092610806 0.12837996
0.067074262 -0.092610806 0.12837996
0.067727178 -0.092533439 0.12831593
0.068380557 -0.092456073 0.1282519
0.069008671 -0.092456073 0.1282519
0.069636784 -0.092456073 0.1282519
0.070291109 -0.092378676 0.12818785
0.070893019 -0.092456073 0.1282519
0.071521141 -0.092456073 0.1282519
0.072149262 -0.092456073 0.1282519
0.072723113 -0.092610806 0.12837996
0.073323391 -0.092688203 0.128444
0.073950805 -0.092688203 0.128444
0.074550383 -0.092765585 0.12850803
0.067074262 -0.093054622 0.12793614
0.067727178 -0.092977419 0.12787196
0.068355061 -0.092977419 0.12787196
0.069008671 -0.092900217 0.12780775
0.069636784 -0.092900217 0.12780775
0.070264906 -0.092900217 0.12780775
0.071025193 -0.092514098 0.12748672
0.071574479 -0.092745766 0.12767935
0.072149262 -0.092900217 0.12780775
0.072750241 -0.092977419 0.12787196
0.073378131 -0.092977419 0.12787196
0.073950805 -0.093131855 0.12800035
0.067752436 -0.093344361 0.12736361
0.068457045 -0.093113184 0.12717049
0.069034405 -0.093267292 0.12729923
0.069636784 -0.093344361 0.12736361
0.070317306 -0.093190253 0.12723486
0.071025193 -0.092959076 0.12704174
0.071654484 -0.092959076 0.12704174
0.072229974 -0.093113184 0.12717049
0.072804518 -0.093267292 0.12729923
0.073460236 -0.093190253 0.12723486
0.068737507 -0.09271206 0.12601596
0.069343165 -0.092788965 0.1260805
0.070026256 -0.092635185 0.12595144
0.070631698 -0.09271206 0.12601596
0.071315952 -0.092558295 0.1258869
0.071867816 -0.092788965 0.1260805
0.072337575 -0.093250275 0.12646769
0.072994463 -0.0931734 0.12640318
0.073542349 -0.093404055 0.12659676
0.07417164 -0.093404055 0.12659676
0.068890475 -0.092698216 0.1251813
0.069549009 -0.092621475 0.1251166
0.070208006 -0.092544779 0.12505192
0.070867486 -0.092468038 0.12498721
0.071448117 -0.092621475 0.1251166
0.072134487 -0.092468038 0.12498721
0.073898152 -0.092851654 0.12531072
0.070063613 -0.091537982 0.12337168
0.070675373 -0.091614544 0.12343656
0.07136526 -0.091461435 0.12330681
0.071976773 -0.091537982 0.12337168
0.0727745 -0.091078669 0.1229825
0.071012907 -0.091072246 0.12214038
0.071679637 -0.090995863 0.12207535
0.072241105 -0.091225013 0.12227044
0.072961167 -0.090995863 0.12207535
0.070501029 -0.09114404 0.12136146
0.071168698 -0.091067806 0.12129626
0.07181064 -0.091067806 0.12129626
0.072452568 -0.091067806 0.12129626
0.073121168 -0.090991601 0.12123106
0.07068114 -0.091065377 0.12045018
0.071324483 -0.091065377 0.12045018
0.071967825 -0.091065377 0.12045018
0.072584733 -0.091141433 0.12051554
0.073254503 -0.091065377 0.12045018
0.07392475 -0.090989307 0.12038481
0.069621816 -0.09083724 0.11940552
0.070267268 -0.09083724 0.11940552
0.07086125 -0.090989038 0.11953658
0.071480274 -0.09106493 0.1196021
0.072098814 -0.091140836 0.11966763
0.072743326 -0.091140836 0.11966763
0.073361173 -0.091216713 0.11973315
0.074005455 -0.091216713 0.11973315
0.074676856 -0.091140836 0.11966763
0.069151558 -0.090763554 0.11848927
0.069773391 -0.090839282 0.11855495
0.07042025 -0.090839282 0.11855495
0.07104136 -0.090915009 0.11862066
0.071662024 -0.090990737 0.11868635
0.072282217 -0.091066465 0.11875202
0.072901927 -0.091142192 0.11881775
0.07354784 -0.091142192 0.11881775
0.074166864 -0.091217905 0.11888342
0.074839674 -0.091142192 0.11881775
0.069351785 -0.090616614 0.11750482
0.06997548 -0.090692177 0.1175707
0.070598722 -0.090767741 0.11763655
0.071221478 -0.09084329 0.11770241
0.071843773 -0.090918869 0.11776827
0.072413206 -0.091145545 0.11796583
0.073034085 -0.091221109 0.11803171
0.073681176 -0.091221109 0.11803171
0.074301369 -0.091296673 0.11809756
0.074948221 -0.091296673 0.11809756
0.069552004 -0.090472341 0.11651775
0.070177577 -0.090547711 0.11658378
0.070802689 -0.090623111 0.11664979
0.071401589 -0.09077391 0.11678185
0.071973592 -0.09100011 0.11697993
0.072570391 -0.091150895 0.11711198
0.073166259 -0.09130168 0.11724402
0.073814519 -0.09130168 0.11724402
0.074435875 -0.091377094 0.11731005
0.069074728 -0.090405911 0.11559419
0.069677144 -0.090556368 0.11572659
0.070329152 -0.090556368 0.11572659
0.070904672 -0.090782076 0.11592516
0.071530238 -0.090857297 0.11599134
0.072103426 -0.09108299 0.11618991
0.072648995 -0.091383904 0.11645468
0.073271982 -0.09145917 0.11652087
0.073894516 -0.091534376 0.11658706
0.074516572 -0.091609612 0.11665326
0.069223486 -0.090416893 0.11473471
0.069827311 -0.090567023 0.11486742
0.070430197 -0.090717167 0.11500014
0.071032159 -0.090867266 0.11513284
0.071633168 -0.09101741 0.11526555
0.072207272 -0.091242626 0.11546463
0.072779991 -0.091467813 0.11566368
0.073404156 -0.09154287 0.11573003
0.074027851 -0.091617942 0.1157964
0.074651085 -0.091692999 0.11586276
0.068766087 -0.090280041 0.11374018
0.069347449 -0.090504766 0.11393975
0.069977477 -0.090579659 0.11400625
0.070581771 -0.090729445 0.1141393
0.071185127 -0.090879261 0.11427234
0.071761817 -0.091103956 0.1144719
0.072363064 -0.091253743 0.11460495
0.072937183 -0.091478452 0.11480451
0.073509879 -0.091703162 0.11500409
0.074161187 -0.091703162 0.11500409
0.068864316 -0.090444818 0.11300975
0.069496214 -0.090519547 0.11307642
0.07010261 -0.090669006 0.1132098
0.070733346 -0.090743735 0.11327648
0.07133811 -0.090893209 0.11340986
0.0719162 -0.091117397 0.11360991
0.072518855 -0.09126687 0.11374329
0.073094368 -0.091491088 0.11394337
0.074321188 -0.091715276 0.11414342
0.068987116 -0.090536296 0.11221112
0.069620185 -0.090610877 0.11227798
0.07022775 -0.090760022 0.11241169
0.070859656 -0.090834588 0.11247854
0.071491078 -0.090909168 0.1125454
0.072070576 -0.091132864 0.11274594
0.072648674 -0.091356561 0.11294651
0.07325156 -0.091505706 0.1130802
0.068450883 -0.090629473 0.11141086
0.069085352 -0.09070389 0.11147788
0.069719359 -0.090778291 0.11154489
0.070377916 -0.090778291 0.11154489
0.07101123 -0.090852663 0.1116119
0.071618564 -0.091001481 0.11174594
0.072199225 -0.0912247 0.11194701
0.072804458 -0.091373518 0.11208105
0.073434956 -0.09144792 0.11214805
0.06859684 -0.090650052 0.11054173
0.06923271 -0.090724304 0.11060894
0.069843322 -0.090872765 0.1107433
0.07047803 -0.090947002 0.11081047
0.07108701 -0.091095477 0.11094485
0.071746044 -0.091095477 0.11094485
0.072353609 -0.091243953 0.11107922
0.072960243 -0.091392428 0.11121358
0.073592149 -0.091466665 0.11128075
0.074250005 -0.091466665 0.11128075
0.069429189 -0.090598539 0.10960329
0.070041671 -0.090746686 0.10973799
0.070678249 -0.09082076 0.10980535
0.071263842 -0.091042981 0.11000741
0.071899027 -0.091117054 0.11007473
0.072507992 -0.091265187 0.11020944
0.073167965 -0.091265187 0.11020944
0.073801734 -0.091339275 0.11027679
0.069010362 -0.09032765 0.10845999
0.069674775 -0.09032765 0.10845999
0.070240021 -0.090623289 0.10873005
0.070828415 -0.090844989 0.1089326
0.071491197 -0.090844989 0.1089326
0.072077498 -0.091066688 0.10913514
0.07271383 -0.091140628 0.10920265
0.073297784 -0.091362327 0.1094052
0.069253616 -0.09006004 0.10731336
0.069871254 -0.090207532 0.10744873
0.070487961 -0.090355009 0.10758407
0.071078695 -0.090576246 0.10778713
0.071693301 -0.090723708 0.10792249
0.072255969 -0.091018677 0.1081932
0.072893947 -0.091092438 0.1082609
0.07342761 -0.091461137 0.10859931
0.068948209 -0.089427888 0.1058242
0.069521189 -0.089722201 0.10609561
0.070067726 -0.090090081 0.10643482
0.070686303 -0.09023723 0.10657053
0.071278915 -0.090457946 0.10677405
0.071895391 -0.090605095 0.10690975
0.07243444 -0.09097296 0.10724898
0.073099792 -0.09097296 0.10724898
0.073739178 -0.091046557 0.10731682
0.069092758 -0.089461386 0.10494219
0.069667138 -0.089755028 0.10521422
0.070239641 -0.090048671 0.10548629
0.070835069 -0.09026891 0.1056903
0.071479142 -0.090342298 0.10575831
0.072046965 -0.09063594 0.10603037
0.072689399 -0.090709358 0.1060984
0.073279902 -0.090929583 0.10630241
0.073920935 -0.091002986 0.10637042
0.074587703 -0.091002986 0.10637042
0.069140941 -0.089789852 0.10433087
0.069764443 -0.089936346 0.10446723
0.070386998 -0.090082839 0.10460359
0.071008623 -0.090229318 0.10473993
0.071629301 -0.090375811 0.10487629
0.072249055 -0.090522304 0.10501266
0.072918862 -0.090522304 0.10501266
0.073537201 -0.090668797 0.10514902
0.074154615 -0.090815261 0.10528535
0.068611935 -0.089826673 0.10344554
0.069237307 -0.089972809 0.1035822
0.06986174 -0.09011896 0.10371891
0.070509791 -0.09019205 0.10378726
0.071157381 -0.090265125 0.10385559
0.071804494 -0.090338215 0.10392395
0.072451152 -0.090411291 0.10399228
0.073122837 -0.090411291 0.10399228
0.073743045 -0.090557456 0.10412897
0.068056501 -0.089938357 0.10262671
0.068659648 -0.090157107 0.10283226
0.069333665 -0.090157107 0.10283226
0.069983363 -0.090230018 0.10290076
0.070657149 -0.090230018 0.10290076
0.071306139 -0.090302944 0.10296927
0.072004721 -0.090230018 0.10290076
0.072627984 -0.090375856 0.10303777
0.073301308 -0.090375856 0.10303777
0.07394889 -0.090448752 0.10310628
0.074621983 -0.090448752 0.10310628
0.068174608 -0.090051726 0.10180625
0.068778932 -0.090269968 0.10201228
0.069454126 -0.090269968 0.10201228
0.070104994 -0.09034273 0.10208096
0.070779949 -0.09034273 0.10208096
0.071454905 -0.09034273 0.10208096
0.072129861 -0.09034273 0.10208096
0.072804816 -0.09034273 0.10208096
0.073454283 -0.090415463 0.10214961
0.074129 -0.090415463 0.10214961
0.074803732 -0.090415463 0.10214961
0.068898216 -0.090384498 0.10119063
0.06957458 -0.090384498 0.10119063
0.070250943 -0.090384498 0.10119063
0.070927307 -0.090384498 0.10119063
0.071603663 -0.090384498 0.10119063
0.072254993 -0.090457097 0.10125948
0.072931126 -0.090457097 0.10125948
0.073607258 -0.090457097 0.10125948
0.074257657 -0.090529665 0.10132831
0.074933551 -0.090529665 0.10132831
0.068339966 -0.090500683 0.10036735
0.0690175 -0.090500683 0.10036735
0.069695033 -0.090500683 0.10036735
0.070372567 -0.090500683 0.10036735
0.0710501 -0.090500683 0.10036735
0.071727633 -0.090500683 0.10036735
0.072380133 -0.090573102 0.10043637
0.073057435 -0.090573102 0.10043637
0.073709242 -0.090645522 0.10050537
0.074386306 -0.090645522 0.10050537
0.07506337 -0.090645522 0.10050537
0.06845808 -0.090618521 0.099542424
0.069112927 -0.090690777 0.099611565
0.069815487 -0.090618521 0.099542424
0.07049419 -0.090618521 0.099542424
0.071172893 -0.090618521 0.099542424
0.071826808 -0.090690777 0.099611565
0.07250528 -0.090690777 0.099611565
0.073158488 -0.090763032 0.099680766
0.073836721 -0.090763032 0.099680766
0.074514955 -0.090763032 0.099680766
0.068552569 -0.09081009 0.098785147
0.069232211 -0.09081009 0.098785147
0.06993594 -0.090738028 0.098715812
0.070591494 -0.09081009 0.098785147
0.071271136 -0.09081009 0.098785147
0.071950771 -0.09081009 0.098785147
0.072630413 -0.09081009 0.098785147
0.073259532 -0.090954274 0.098923817
0.073913217 -0.091026351 0.098993152
0.074617878 -0.090954274 0.098923817
0.068670683 -0.090931088 0.09795706
0.069375351 -0.09085916 0.097887546
0.070056401 -0.09085916 0.097887546
0.070737444 -0.09085916 0.097887546
0.071418494 -0.09085916 0.097887546
0.072074741 -0.090931088 0.09795706
0.072755553 -0.090931088 0.09795706
0.073436365 -0.090931088 0.09795706
0.074066184 -0.091074929 0.098096073
0.074746527 -0.091074929 0.098096073
0.069518492 -0.090910226 0.096987978
0.07022503 -0.090838462 0.0969183
0.070859075 -0.090981975 0.097057641
0.071516722 -0.091053739 0.097127318
0.072198704 -0.091053739 0.097127318
0.072880685 -0.091053739 0.097127318
0.073562674 -0.091053739 0.097127318
0.074193664 -0.091197252 0.097266644
0.068977773 -0.090963259 0.096086398
0.069661632 -0.090963259 0.096086398
0.070345484 -0.090963259 0.096086398
0.070980698 -0.09110643 0.096226066
0.071639523 -0.091178015 0.096295893
0.07234747 -0.09110643 0.096226066
0.073005833 -0.091178015 0.096295893
0.073688991 -0.091178015 0.096295893
0.074321151 -0.091321185 0.096435577
0.069119513 -0.091018274 0.095182836
0.069804773 -0.091018274 0.095182836
0.070490032 -0.091018274 0.095182836
0.071126647 -0.091161117 0.095322847
0.07178688 -0.091232553 0.095392853
0.072496235 -0.091161117 0.095322847
0.073181026 -0.091161117 0.095322847
0.073865823 -0.091161117 0.095322847
0.068621352 -0.090932786 0.094136983
0.06930849 -0.090932786 0.094136983
0.069995627 -0.090932786 0.094136983
0.070658669 -0.091004029 0.094207138
0.071272597 -0.091217816 0.094417647
0.071934238 -0.091289058 0.094487816
0.072620198 -0.091289058 0.094487816
0.073306166 -0.091289058 0.094487816
0.074017391 -0.091217816 0.094417647
0.068808459 -0.090849921 0.093088448
0.069497474 -0.090849921 0.093088448
0.070138767 -0.090992108 0.093229115
0.070827305 -0.090992108 0.093229115
0.071491517 -0.091063201 0.093299463
0.07213071 -0.091205388 0.09344013
0.07281854 -0.091205388 0.09344013
0.073506378 -0.091205388 0.09344013
0.068948783 -0.090911582 0.092178285
0.069662832 -0.090840638 0.092107788
0.070353478 -0.090840638 0.092107788
0.071020029 -0.090911582 0.092178285
0.071686126 -0.090982497 0.092248783
0.072327182 -0.091124356 0.092389777
0.073016897 -0.091124356 0.092389777
0.073706605 -0.091124356 0.092389777
0.069135897 -0.090833694 0.091124788
0.069851808 -0.090762943 0.091054142
0.070520476 -0.090833694 0.091124788
0.071236849 -0.090762943 0.091054142
0.071905054 -0.090833694 0.091124788
0.072548218 -0.09097521 0.091266125
0.073289625 -0.090833694 0.091124788
0.073931858 -0.09097521 0.091266125
0.074623674 -0.09097521 0.091266125
0.069252834 -0.090970248 0.090281144
0.069969922 -0.090899646 0.090210304
0.070687473 -0.090829059 0.090139478
0.07135731 -0.090899646 0.090210304
0.072051004 -0.090899646 0.090210304
0.072720133 -0.090970248 0.090281144
0.073438391 -0.090899646 0.090210304
0.074132077 -0.090899646 0.090210304
0.069393165 -0.091038018 0.089364842
0.070111655 -0.090967596 0.089293852
0.070806749 -0.090967596 0.089293852
0.071550034 -0.090826735 0.089151859
0.072196953 -0.090967596 0.089293852
0.072941169 -0.090826735 0.089151859
0.073661521 -0.090756327 0.08908087
0.074332297 -0.090826735 0.089151859
0.070253395 -0.091037527 0.088375375
0.071069174 -0.090686202 0.088019595
0.07171867 -0.090826735 0.088161916
0.072464526 -0.090686202 0.088019595
0.073113084 -0.090826735 0.088161916
0.073810287 -0.090826735 0.088161916
0.070584103 -0.090548664 0.08688435
0.071307741 -0.090478584 0.086813033
0.071983665 -0.090548664 0.08688435
0.072659135 -0.090618744 0.086955667
0.073309556 -0.09075895 0.087098315
0.073983841 -0.090829059 0.087169647
0.070891201 -0.090134367 0.085460156
0.071570165 -0.090204298 0.085531667
0.072200485 -0.090414107 0.085746124
0.072878055 -0.090484008 0.085817605
0.073506027 -0.090693831 0.086032078
0.071174666 -0.089794159 0.084103331
0.07180874 -0.090003446 0.08431828
0.072393216 -0.090352282 0.084676549
0.073024005 -0.090561569 0.084891543
0.073702507 -0.090631336 0.084963188
0.06953907 -0.088831514 0.08209613
0.070203327 -0.088970691 0.082239762
0.070843242 -0.089179501 0.082455248
0.071576253 -0.089109898 0.082383409
0.072238155 -0.089249104 0.082527041
0.07287503 -0.089457914 0.082742527
0.073559158 -0.089527503 0.082814336
0.069722436 -0.088778466 0.081017792
0.070388556 -0.088917315 0.081161782
0.071030349 -0.089125633 0.081377745
0.071741611 -0.089125633 0.081377745
0.072429009 -0.089195073 0.081449732
0.073164128 -0.089125633 0.081377745
0.073972687 -0.088847876 0.08108978
0 0 0 1 0 0 0 1 0 0 0 1 0 0 0 0 0 518 1 0 0
