ply
format ascii 1.0
comment PCL generated
element vertex 551
property float x
property float y
property float z
element camera 1
property float view_px
property float view_py
property float view_pz
property float x_axisx
property float x_axisy
property float x_axisz
property float y_axisx
property float y_axisy
property float y_axisz
property float z_axisx
property float z_axisy
property float z_axisz
property float focal
property float scalex
property float scaley
property float centerx
property float centery
property int viewportx
property int viewporty
property float k1
property float k2
end_header
0.070238717 -0.088981599 0.13186778
0.070866592 -0.088981599 0.13186778
0.068329573 -0.089504093 0.13148665
0.068957217 -0.089504093 0.13148665
0.069558896 -0.089582652 0.13154955
0.070212521 -0.089504093 0.13148665
0.070840165 -0.089504093 0.13148665
0.071441144 -0.089582652 0.13154955
0.072041661 -0.089661196 0.13161242
0.072641701 -0.08973974 0.1316753
0.067651391 -0.090104669 0.13116893
0.068278573 -0.090104669 0.13116893
0.068957217 -0.089947909 0.13104284
0.069558896 -0.090026304 0.1311059
0.070212521 -0.089947909 0.13104284
0.070840165 -0.089947909 0.13104284
0.071441144 -0.090026304 0.1311059
0.072041661 -0.090104669 0.13116893
0.072641701 -0.090183064 0.13123199
0.073241286 -0.09026143 0.13129503
0.066974156 -0.09070459 0.13085188
0.067626126 -0.090626389 0.13078867
0.068253078 -0.090626389 0.13078867
0.068905748 -0.090548158 0.13072546
0.069532938 -0.090548158 0.13072546
0.070186317 -0.090469956 0.13066225
0.070813723 -0.090469956 0.13066225
0.071414478 -0.090548158 0.13072546
0.072041661 -0.090548158 0.13072546
0.072641701 -0.090626389 0.13078867
0.073241286 -0.09070459 0.13085188
0.073840387 -0.090782821 0.13091509
0.066949122 -0.091225803 0.13047211
0.067600869 -0.091147751 0.13040872
0.068227582 -0.091147751 0.13040872
0.068880014 -0.091069698 0.13034534
0.069532938 -0.090991646 0.13028197
0.070160121 -0.090991646 0.13028197
0.070787296 -0.090991646 0.13028197
0.071387805 -0.091069698 0.13034534
0.072014757 -0.091069698 0.13034534
0.072614565 -0.091147751 0.13040872
0.073241286 -0.091147751 0.13040872
0.07381279 -0.09130384 0.13053548
0.074439026 -0.09130384 0.13053548
0.066273056 -0.091824561 0.1301562
0.066924095 -0.091746658 0.13009265
0.067550346 -0.091746658 0.13009265
0.06817659 -0.091746658 0.13009265
0.068828553 -0.091668785 0.13002911
0.069481008 -0.091590896 0.12996557
0.070133917 -0.091513023 0.12990203
0.070760861 -0.091513023 0.12990203
0.071361147 -0.091590896 0.12996557
0.072014757 -0.091513023 0.12990203
0.072614565 -0.091590896 0.12996557
0.073241286 -0.091590896 0.12996557
0.073840387 -0.091668785 0.13002911
0.074439026 -0.091746658 0.13009265
0.066273056 -0.092267215 0.12971355
0.066899061 -0.092267215 0.12971355
0.067550346 -0.092189491 0.12964983
0.06817659 -0.092189491 0.12964983
0.068828553 -0.092111781 0.12958613
0.069481008 -0.092034042 0.12952241
0.070107721 -0.092034042 0.12952241
0.070760861 -0.091956347 0.12945871
0.071387805 -0.091956347 0.12945871
0.07198786 -0.092034042 0.12952241
0.072614565 -0.092034042 0.12952241
0.073241286 -0.092034042 0.12952241
0.073840387 -0.092111781 0.12958613
0.074466862 -0.092111781 0.12958613
0.066248268 -0.0927874 0.12933475
0.066899061 -0.092709869 0.1292709
0.067525074 -0.092709869 0.1292709
0.068202086 -0.092554763 0.12914315
0.068828553 -0.092554763 0.12914315
0.069455035 -0.092554763 0.12914315
0.070133917 -0.092399657 0.1290154
0.070787296 -0.092322096 0.12895152
0.071387805 -0.092399657 0.1290154
0.072014757 -0.092399657 0.1290154
0.072614565 -0.092477202 0.12907927
0.073241286 -0.092477202 0.12907927
0.073867999 -0.092477202 0.12907927
0.074466862 -0.092554763 0.12914315
0.075093344 -0.092554763 0.12914315
0.066273056 -0.093152523 0.12882824
0.066924095 -0.093075126 0.1287642
0.067550346 -0.093075126 0.1287642
0.068202086 -0.09299776 0.12870017
0.068854287 -0.092920363 0.12863611
0.069506966 -0.092842981 0.12857208
0.070160121 -0.092765585 0.12850803
0.070813723 -0.092688203 0.128444
0.071441144 -0.092688203 0.128444
0.072068557 -0.092688203 0.128444
0.072668836 -0.092765585 0.12850803
0.073268652 -0.092842981 0.12857208
0.073867999 -0.092920363 0.12863611
0.074494705 -0.092920363 0.12863611
0.066924095 -0.093517959 0.12832138
0.067575604 -0.093440741 0.12825717
0.068227582 -0.093363509 0.12819296
0.068880014 -0.093286291 0.12812877
0.069558896 -0.093131855 0.12800035
0.070186317 -0.093131855 0.12800035
0.070813723 -0.093131855 0.12800035
0.071467817 -0.093054622 0.12793614
0.072068557 -0.093131855 0.12800035
0.072695971 -0.093131855 0.12800035
0.073323391 -0.093131855 0.12800035
0.073923208 -0.093209058 0.12806454
0.07452254 -0.093286291 0.12812877
0.067575604 -0.093883723 0.12781419
0.068227582 -0.093806654 0.1277498
0.068905748 -0.093652546 0.12762107
0.069532938 -0.093652546 0.12762107
0.070212521 -0.093498439 0.12749232
0.070893019 -0.093344361 0.12736361
0.071521141 -0.093344361 0.12736361
0.072176166 -0.093267292 0.12729923
0.072777376 -0.093344361 0.12736361
0.073405497 -0.093344361 0.12736361
0.073950805 -0.093575507 0.1275567
0.067727178 -0.093865395 0.126984
0.068431549 -0.093634725 0.12679039
0.069137327 -0.093404055 0.12659676
0.069792576 -0.09332718 0.12653224
0.070474498 -0.0931734 0.12640318
0.071078055 -0.093250275 0.12646769
0.071707815 -0.093250275 0.12646769
0.072283775 -0.093404055 0.12659676
0.072885916 -0.093480945 0.12666132
0.073460236 -0.093634725 0.12679039
0.074006014 -0.093865395 0.126984
0.068005055 -0.093465418 0.12582831
0.068584524 -0.09361887 0.12595771
0.069265977 -0.093465418 0.12582831
0.069922395 -0.093388706 0.12576361
0.070605494 -0.093235269 0.12563421
0.07126309 -0.093158528 0.12556949
0.071867816 -0.093235269 0.12563421
0.072445177 -0.093388706 0.12576361
0.072913058 -0.093849018 0.1261518
0.073542349 -0.093849018 0.1261518
0.069471814 -0.093298778 0.12486359
0.070104152 -0.093298778 0.12486359
0.070762686 -0.093222216 0.12479872
0.071395248 -0.093222216 0.12479872
0.072027817 -0.093222216 0.12479872
0.073130138 -0.093681574 0.1251879
0.069823913 -0.090230092 0.11888129
0.07042025 -0.090381876 0.11901236
0.071015634 -0.090533674 0.11914341
0.071636058 -0.090609565 0.11920892
0.072256014 -0.090685472 0.11927447
0.072875492 -0.090761334 0.11933997
0.073521182 -0.090761334 0.11933997
0.07002601 -0.09008202 0.11789802
0.070573226 -0.090384901 0.1181608
0.071195744 -0.090460643 0.1182265
0.071739912 -0.090763554 0.11848927
0.072334602 -0.090915009 0.11862066
0.073113389 -0.090536371 0.11829217
0.073707849 -0.090687811 0.11842357
0.069074728 -0.089483172 0.11651693
0.069627091 -0.089785427 0.11678039
0.070127055 -0.09023881 0.11717553
0.070675202 -0.090541065 0.11743897
0.071298666 -0.090616614 0.11750482
0.071921661 -0.090692177 0.1175707
0.072518006 -0.09084329 0.11770241
0.073192686 -0.090767741 0.11763655
0.073841184 -0.090767741 0.11763655
0.06861873 -0.089341372 0.11552738
0.069149107 -0.089718357 0.1158575
0.069727205 -0.089944541 0.11605556
0.070354417 -0.090019941 0.11612161
0.07085368 -0.090472341 0.11651775
0.071504503 -0.090472341 0.11651775
0.072103426 -0.090623111 0.11664979
0.072727591 -0.09069851 0.11671583
0.073377714 -0.09069851 0.11671583
0.074027851 -0.09069851 0.11671583
0.068692401 -0.08957839 0.11486612
0.069248281 -0.089879289 0.11513087
0.069802284 -0.090180218 0.11539564
0.070404939 -0.090330675 0.11552802
0.071006656 -0.090481147 0.1156604
0.071555965 -0.090782076 0.11592516
0.072181314 -0.090857297 0.11599134
0.07280618 -0.090932548 0.11605754
0.073430583 -0.091007754 0.11612374
0.074081182 -0.091007754 0.11612374
0.074758686 -0.090932548 0.11605754
0.068256281 -0.089365974 0.11380574
0.068790644 -0.089741305 0.1141375
0.069347449 -0.090041578 0.11440293
0.069927417 -0.090266749 0.114602
0.070531249 -0.090416893 0.11473471
0.071134135 -0.090567023 0.11486742
0.071710356 -0.090792209 0.11506648
0.072337106 -0.090867266 0.11513284
0.072937183 -0.09101741 0.11526555
0.073536314 -0.091167539 0.11539826
0.07418786 -0.091167539 0.11539826
0.074839398 -0.091167539 0.11539826
0.067791849 -0.089231461 0.11280887
0.068377912 -0.089456141 0.11300842
0.069496214 -0.090055361 0.1135406
0.07010261 -0.090205148 0.11367366
0.070632294 -0.090579659 0.11400625
0.071287118 -0.090579659 0.11400625
0.071839005 -0.090879261 0.11427234
0.072440952 -0.091029063 0.11440539
0.073041968 -0.091178864 0.11453845
0.07366848 -0.091253743 0.11460495
0.074321188 -0.091253743 0.11460495
0.074973904 -0.091253743 0.11460495
0.067912303 -0.089323789 0.11200944
0.068499535 -0.089547992 0.11220948
0.069060795 -0.089846939 0.11247624
0.069620185 -0.090145871 0.11274299
0.070202723 -0.090370074 0.11294305
0.070809126 -0.090519547 0.11307642
0.07141459 -0.090669006 0.1132098
0.071993388 -0.090893209 0.11340986
0.072570786 -0.091117397 0.11360991
0.073199168 -0.091192141 0.11367661
0.07382708 -0.09126687 0.11374329
0.074454524 -0.091341615 0.11380999
0.068008669 -0.089492351 0.11127518
0.06859684 -0.089716047 0.11147574
0.069159031 -0.090014324 0.11174315
0.069719359 -0.090312615 0.11201057
0.070327863 -0.090461731 0.11214426
0.070935436 -0.090610877 0.11227798
0.071516581 -0.090834588 0.11247854
0.072122037 -0.090983734 0.11261223
0.072726563 -0.091132864 0.11274594
0.07335636 -0.09120743 0.11281279
0.073959239 -0.091356561 0.11294651
0.06869413 -0.089885443 0.11074068
0.06923271 -0.090257466 0.11107577
0.069843322 -0.090406269 0.11120979
0.070427977 -0.090629473 0.11141086
0.071036488 -0.090778291 0.11154489
0.071669556 -0.090852663 0.1116119
0.072250687 -0.091075897 0.11181296
0.072830424 -0.091299102 0.11201403
0.073461153 -0.091373518 0.11208105
0.074117832 -0.091373518 0.11208105
0.07474786 -0.09144792 0.11214805
0.068177305 -0.089907676 0.10986991
0.068767115 -0.090130374 0.11007145
0.069380067 -0.090278864 0.11020581
0.069942497 -0.090575814 0.11047457
0.070553109 -0.090724304 0.11060894
0.07116279 -0.090872765 0.1107433
0.071797036 -0.090947002 0.11081047
0.072379336 -0.09116973 0.11101204
0.072986215 -0.091318175 0.11114639
0.073618345 -0.091392428 0.11121358
0.074276432 -0.091392428 0.11121358
0.067753091 -0.089635611 0.10872777
0.068297759 -0.090005979 0.10906452
0.068937384 -0.090080038 0.10913184
0.069527417 -0.090302259 0.1093339
0.070116051 -0.09052448 0.10953596
0.070703283 -0.090746686 0.10973799
0.07133963 -0.09082076 0.10980535
0.071899027 -0.091117054 0.11007473
0.072507992 -0.091265187 0.11020944
0.073142 -0.091339275 0.11027679
0.073775537 -0.091413334 0.11034414
0.068442307 -0.090032011 0.10818993
0.069083333 -0.090105921 0.10825744
0.06969934 -0.090253726 0.10839248
0.070289604 -0.09047547 0.10859503
0.070903495 -0.090623289 0.10873005
0.071516462 -0.090771094 0.10886508
0.072077498 -0.091066688 0.10913514
0.07271383 -0.091140628 0.10920265
0.073323749 -0.091288432 0.10933769
0.073985122 -0.091288432 0.10933769
0.068586849 -0.09006004 0.10731336
0.069204964 -0.090207532 0.10744873
0.069871254 -0.090207532 0.10744873
0.070487961 -0.090355009 0.10758407
0.071078695 -0.090576246 0.10778713
0.071693301 -0.090723708 0.10792249
0.072255969 -0.091018677 0.1081932
0.072893947 -0.091092438 0.1082609
0.073531464 -0.091166154 0.10832858
0.074142322 -0.091313645 0.10846394
0.068063229 -0.090090081 0.10643482
0.068707302 -0.090163648 0.10650267
0.069350913 -0.09023723 0.10657053
0.069994047 -0.090310797 0.10663836
0.070611924 -0.090457946 0.10677405
0.071253896 -0.090531513 0.10684189
0.071870133 -0.090678662 0.10697758
0.07243444 -0.09097296 0.10724898
0.073074058 -0.091046557 0.10731682
0.073713221 -0.091120124 0.10738467
0.067536801 -0.090122074 0.10555428
0.068158656 -0.09026891 0.1056903
0.068827756 -0.09026891 0.1056903
0.069472544 -0.090342298 0.10575831
0.070141405 -0.090342298 0.10575831
0.070810273 -0.090342298 0.10575831
0.071404055 -0.090562537 0.10596237
0.0720217 -0.090709358 0.1060984
0.072663903 -0.090782762 0.10616638
0.073920935 -0.091002986 0.10637042
0.067654915 -0.090229318 0.10473993
0.068301797 -0.090302557 0.10480811
0.068948209 -0.090375811 0.10487629
0.069618486 -0.090375811 0.10487629
0.070288762 -0.090375811 0.10487629
0.070959032 -0.090375811 0.10487629
0.071579248 -0.090522304 0.10501266
0.072198533 -0.090668797 0.10514902
0.072842374 -0.090742037 0.10521717
0.073434286 -0.090961754 0.10542171
0.07407672 -0.091035008 0.10548989
0.067796648 -0.090265125 0.10385559
0.068444937 -0.090338215 0.10392395
0.069116846 -0.090338215 0.10392395
0.069788761 -0.090338215 0.10392395
0.070460677 -0.090338215 0.10392395
0.071132585 -0.090338215 0.10392395
0.071779475 -0.090411291 0.10399228
0.07240063 -0.090557456 0.10412897
0.073046349 -0.090630502 0.10419729
0.073665857 -0.090776667 0.104334
0.0743104 -0.090849757 0.10440235
0.068611935 -0.090302944 0.10296927
0.069309577 -0.090230018 0.10290076
0.069959037 -0.090302944 0.10296927
0.070632592 -0.090302944 0.10296927
0.071306139 -0.090302944 0.10296927
0.071954668 -0.090375856 0.10303777
0.072627984 -0.090375856 0.10303777
0.073275812 -0.090448752 0.10310628
0.073871695 -0.090667501 0.10331181
0.07454408 -0.090667501 0.10331181
0.068778932 -0.090269968 0.10201228
0.069430031 -0.09034273 0.10208096
0.070104994 -0.09034273 0.10208096
0.070779949 -0.09034273 0.10208096
0.071430109 -0.090415463 0.10214961
0.072129861 -0.09034273 0.10208096
0.072804816 -0.09034273 0.10208096
0.073454283 -0.090415463 0.10214961
0.074051805 -0.09063372 0.10235564
0.07477776 -0.090488225 0.1022183
0.068292722 -0.090166762 0.10098413
0.068969786 -0.090166762 0.10098413
0.069598667 -0.09031193 0.10112181
0.070250943 -0.090384498 0.10119063
0.070927307 -0.090384498 0.10119063
0.071603663 -0.090384498 0.10119063
0.072254993 -0.090457097 0.10125948
0.072931126 -0.090457097 0.10125948
0.073581763 -0.090529665 0.10132831
0.074257657 -0.090529665 0.10132831
0.074933551 -0.090529665 0.10132831
0.067826152 -0.089993775 0.099884316
0.06845808 -0.090138614 0.10002233
0.069112927 -0.090211019 0.10009132
0.069767304 -0.090283453 0.10016035
0.070396893 -0.090428278 0.10029835
0.071074657 -0.090428278 0.10029835
0.071727633 -0.090500683 0.10036735
0.072380133 -0.090573102 0.10043637
0.0730827 -0.090500683 0.10036735
0.073734738 -0.090573102 0.10043637
0.074412033 -0.090573102 0.10043637
0.067262746 -0.090112776 0.099058226
0.067919701 -0.090185016 0.099127382
0.068576187 -0.090257287 0.099196553
0.069232211 -0.090329513 0.099265724
0.069911852 -0.090329513 0.099265724
0.070542842 -0.090474024 0.099404067
0.071172893 -0.090618521 0.099542424
0.071826808 -0.090690777 0.099611565
0.072530299 -0.090618521 0.099542424
0.073183753 -0.090690777 0.099611565
0.073862225 -0.090690777 0.099611565
0.07454069 -0.090690777 0.099611565
0.075219162 -0.090690777 0.099611565
0.067355365 -0.090305507 0.098299786
0.067989863 -0.090449676 0.098438472
0.068670683 -0.090449676 0.098438472
0.069303781 -0.09059386 0.098577142
0.069960035 -0.090665936 0.098646462
0.070640147 -0.090665936 0.098646462
0.071320251 -0.090665936 0.098646462
0.071975566 -0.090738028 0.098715812
0.072630413 -0.09081009 0.098785147
0.073259532 -0.090954274 0.098923817
0.073989704 -0.09081009 0.098785147
0.075348981 -0.09081009 0.098785147
0.066765763 -0.090499565 0.097540051
0.067378514 -0.090715349 0.097748548
0.068106808 -0.090571493 0.097609565
0.068741545 -0.090715349 0.097748548
0.069399208 -0.090787247 0.097818047
0.070104577 -0.090715349 0.097748548
0.07076177 -0.090787247 0.097818047
0.071418494 -0.09085916 0.097887546
0.072099537 -0.09085916 0.097887546
0.072755553 -0.090931088 0.09795706
0.073436365 -0.090931088 0.09795706
0.074117184 -0.090931088 0.09795706
0.074797988 -0.090931088 0.09795706
0.06685745 -0.090694949 0.096778959
0.067540601 -0.090694949 0.096778959
0.068223752 -0.090694949 0.096778959
0.068859667 -0.090838462 0.0969183
0.069542348 -0.090838462 0.0969183
0.070200935 -0.090910226 0.096987978
0.070883393 -0.090910226 0.096987978
0.071565844 -0.090910226 0.096987978
0.072223507 -0.090981975 0.097057641
0.072905719 -0.090981975 0.097057641
0.073587939 -0.090981975 0.097057641
0.074244663 -0.091053739 0.097127318
0.074926637 -0.091053739 0.097127318
0.066949122 -0.090891674 0.096016586
0.067633212 -0.090891674 0.096016586
0.068317302 -0.090891674 0.096016586
0.069001392 -0.090891674 0.096016586
0.069661632 -0.090963259 0.096086398
0.070369571 -0.090891674 0.096016586
0.071029343 -0.090963259 0.096086398
0.071713202 -0.090963259 0.096086398
0.072372258 -0.091034859 0.096156254
0.073030859 -0.09110643 0.096226066
0.073739506 -0.091034859 0.096156254
0.07437215 -0.091178015 0.096295893
0.067040801 -0.091089696 0.095252857
0.067748986 -0.091018274 0.095182836
0.068434246 -0.091018274 0.095182836
0.069119513 -0.091018274 0.095182836
0.069804773 -0.091018274 0.095182836
0.070490032 -0.091018274 0.095182836
0.071150973 -0.091089696 0.095252857
0.071811438 -0.091161117 0.095322847
0.072496235 -0.091161117 0.095322847
0.073181026 -0.091161117 0.095322847
0.073865823 -0.091161117 0.095322847
0.074550621 -0.091161117 0.095322847
0.067155398 -0.091217816 0.094417647
0.06788791 -0.091075301 0.094277307
0.06857457 -0.091075301 0.094277307
0.069261245 -0.091075301 0.094277307
0.06997177 -0.091004029 0.094207138
0.070658669 -0.091004029 0.094207138
0.071321249 -0.091075301 0.094277307
0.072007909 -0.091075301 0.094277307
0.072620198 -0.091289058 0.094487816
0.073331185 -0.091217816 0.094417647
0.073992133 -0.091289058 0.094487816
0.074678101 -0.091289058 0.094487816
0.067315839 -0.091205388 0.09344013
0.068003677 -0.091205388 0.09344013
0.068714909 -0.091134295 0.093369782
0.069450229 -0.090992108 0.093229115
0.070138767 -0.090992108 0.093229115
0.07080321 -0.091063201 0.093299463
0.071491517 -0.091063201 0.093299463
0.072155267 -0.091134295 0.093369782
0.07281854 -0.091205388 0.09344013
0.073506378 -0.091205388 0.09344013
0.0741437 -0.091347545 0.093580768
0.067499205 -0.091124356 0.092389777
0.068188913 -0.091124356 0.092389777
0.068925403 -0.090982497 0.092248783
0.069662832 -0.090840638 0.092107788
0.070353478 -0.090840638 0.092107788
0.071044125 -0.090840638 0.092107788
0.071686126 -0.090982497 0.092248783
0.072327182 -0.091124356 0.092389777
0.072992101 -0.091195285 0.092460245
0.073681578 -0.091195285 0.092460245
0.074345797 -0.091266215 0.092530772
0.06837415 -0.091045976 0.091336772
0.069089122 -0.09097521 0.091266125
0.069851808 -0.090762943 0.091054142
0.070520476 -0.090833694 0.091124788
0.071212761 -0.090833694 0.091124788
0.071905054 -0.090833694 0.091124788
0.072523661 -0.091045976 0.091336772
0.073215246 -0.091045976 0.091336772
0.073881797 -0.091116741 0.091407448
0.074522629 -0.091258273 0.091548771
0.069276229 -0.090899646 0.090210304
0.070040792 -0.090687856 0.089997828
0.070735186 -0.090687856 0.089997828
0.071381398 -0.090829059 0.090139478
0.072051004 -0.090899646 0.090210304
0.072720133 -0.090970248 0.090281144
0.073364004 -0.091111436 0.090422809
0.074031964 -0.091182038 0.090493605
0.074699461 -0.09125264 0.090564445
0.068721458 -0.090967596 0.089293852
0.069463328 -0.090826735 0.089151859
0.070182517 -0.090756327 0.08908087
0.070878319 -0.090756327 0.08908087
0.071550034 -0.090826735 0.089151859
0.072196953 -0.090967596 0.089293852
0.07286749 -0.091038018 0.089364842
0.073562354 -0.091038018 0.089364842
0.074232183 -0.091108456 0.089435846
0.069697209 -0.090615958 0.087948456
0.070395119 -0.090615958 0.087948456
0.07109303 -0.090615958 0.087948456
0.071790941 -0.090615958 0.087948456
0.072415873 -0.090826735 0.088161916
0.073113084 -0.090826735 0.088161916
0.073785499 -0.090896994 0.088233069
0.069931097 -0.090408474 0.086741701
0.070725843 -0.090128064 0.086456403
0.071379319 -0.090268269 0.086599052
0.072007753 -0.090478584 0.086813033
0.072659135 -0.090618744 0.086955667
0.073358677 -0.090618744 0.086955667
0.073983841 -0.090829059 0.087169647
0.070281923 -0.089854643 0.085174188
0.07098569 -0.089854643 0.085174188
0.071617879 -0.090064436 0.085388675
0.072224572 -0.090344176 0.085674644
0.072902381 -0.090414107 0.085746124
0.073604271 -0.090414107 0.085746124
0.07418219 -0.090763748 0.086103573
0.070492424 -0.089724377 0.084031671
0.071174666 -0.089794159 0.084103331
0.071784876 -0.090073213 0.084389955
0.072417304 -0.090282515 0.084604919
0.073121309 -0.090282515 0.084604919
0.073800743 -0.090352282 0.084676549
0.07077308 -0.089388296 0.082670689
0.071458139 -0.089457914 0.082742527
0.072142728 -0.089527503 0.082814336
0.07280276 -0.089666709 0.082957983
0.073486187 -0.089736298 0.083029792
0.074193694 -0.089736298 0.083029792
0 0 0 1 0 0 0 1 0 0 0 1 0 0 0 0 0 551 1 0 0
