ply
format ascii 1.0
comment PCL generated
element vertex 589
property float x
property float y
property float z
element camera 1
property float view_px
property float view_py
property float view_pz
property float x_axisx
property float x_axisy
property float x_axisz
property float y_axisx
property float y_axisy
property float y_axisz
property float z_axisx
property float z_axisy
property float z_axisz
property float focal
property float scalex
property float scaley
property float centerx
property float centery
property int viewportx
property int viewporty
property float k1
property float k2
end_header
0.068982944 -0.088981599 0.13186778
0.069636784 -0.088902891 0.13180508
0.070264906 -0.088902891 0.13180508
0.070866592 -0.088981599 0.13186778
0.071467817 -0.089060277 0.13193047
0.067727178 -0.089425579 0.1314238
0.068380557 -0.089347035 0.13136092
0.068982944 -0.089425579 0.1314238
0.069610827 -0.089425579 0.1314238
0.070238717 -0.089425579 0.1314238
0.070866592 -0.089425579 0.1314238
0.071467817 -0.089504093 0.13148665
0.072068557 -0.089582652 0.13154955
0.072668836 -0.089661196 0.13161242
0.067074262 -0.089947909 0.13104284
0.067701921 -0.089947909 0.13104284
0.068355061 -0.089869559 0.13097982
0.068957217 -0.089947909 0.13104284
0.069610827 -0.089869559 0.13097982
0.070238717 -0.089869559 0.13097982
0.070866592 -0.089869559 0.13097982
0.071467817 -0.089947909 0.13104284
0.072068557 -0.090026304 0.1311059
0.072668836 -0.090104669 0.13116893
0.073268652 -0.090183064 0.13123199
0.066397026 -0.090548158 0.13072546
0.067024209 -0.090548158 0.13072546
0.067676648 -0.090469956 0.13066225
0.068329573 -0.090391725 0.13059902
0.068931475 -0.090469956 0.13066225
0.069584869 -0.090391725 0.13059902
0.070238717 -0.090313539 0.13053584
0.070866592 -0.090313539 0.13053584
0.071441144 -0.090469956 0.13066225
0.072041661 -0.090548158 0.13072546
0.072641701 -0.090626389 0.13078867
0.073241286 -0.09070459 0.13085188
0.073840387 -0.090782821 0.13091509
0.066397026 -0.090991646 0.13028197
0.067024209 -0.090991646 0.13028197
0.067651391 -0.090991646 0.13028197
0.068278573 -0.090991646 0.13028197
0.068931475 -0.090913609 0.1302186
0.069558896 -0.090913609 0.1302186
0.070186317 -0.090913609 0.1302186
0.070840165 -0.090835541 0.13015521
0.071441144 -0.090913609 0.1302186
0.072014757 -0.091069698 0.13034534
0.072641701 -0.091069698 0.13034534
0.073241286 -0.091147751 0.13040872
0.073840387 -0.091225803 0.13047211
0.074439026 -0.09130384 0.13053548
0.06572073 -0.091590896 0.12996557
0.066347443 -0.091590896 0.12996557
0.066999175 -0.091513023 0.12990203
0.067626126 -0.091513023 0.12990203
0.068278573 -0.091435134 0.12983848
0.068931475 -0.091357261 0.12977494
0.069558896 -0.091357261 0.12977494
0.070186317 -0.091357261 0.12977494
0.070840165 -0.091279358 0.12971139
0.071414478 -0.091435134 0.12983848
0.072041661 -0.091435134 0.12983848
0.072614565 -0.091590896 0.12996557
0.073241286 -0.091590896 0.12996557
0.073840387 -0.091668785 0.13002911
0.074439026 -0.091746658 0.13009265
0.065696165 -0.092111781 0.12958613
0.066347443 -0.092034042 0.12952241
0.066999175 -0.091956347 0.12945871
0.067626126 -0.091956347 0.12945871
0.068253078 -0.091956347 0.12945871
0.068905748 -0.091878608 0.12939501
0.069558896 -0.091800898 0.12933129
0.070212521 -0.091723174 0.12926759
0.070813723 -0.091800898 0.12933129
0.071441144 -0.091800898 0.12933129
0.072041661 -0.091878608 0.12939501
0.072641701 -0.091956347 0.12945871
0.073241286 -0.092034042 0.12952241
0.073867999 -0.092034042 0.12952241
0.074466862 -0.092111781 0.12958613
0.065696165 -0.092554763 0.12914315
0.066347443 -0.092477202 0.12907927
0.066999175 -0.092399657 0.1290154
0.067626126 -0.092399657 0.1290154
0.068278573 -0.092322096 0.12895152
0.068931475 -0.092244551 0.12888765
0.069558896 -0.092244551 0.12888765
0.070212521 -0.09216699 0.12882377
0.070840165 -0.09216699 0.12882377
0.071467817 -0.09216699 0.12882377
0.072068557 -0.092244551 0.12888765
0.072668836 -0.092322096 0.12895152
0.073296025 -0.092322096 0.12895152
0.073867999 -0.092477202 0.12907927
0.074494705 -0.092477202 0.12907927
0.066322647 -0.09299776 0.12870017
0.066999175 -0.092842981 0.12857208
0.067626126 -0.092842981 0.12857208
0.068278573 -0.092765585 0.12850803
0.068905748 -0.092765585 0.12850803
0.069584869 -0.092610806 0.12837996
0.070238717 -0.092533439 0.12831593
0.070866592 -0.092533439 0.12831593
0.071494475 -0.092533439 0.12831593
0.072068557 -0.092688203 0.128444
0.072695971 -0.092688203 0.128444
0.073296025 -0.092765585 0.12850803
0.073923208 -0.092765585 0.12850803
0.074494705 -0.092920363 0.12863611
0.066347443 -0.093363509 0.12819296
0.066999175 -0.093286291 0.12812877
0.067676648 -0.093131855 0.12800035
0.068329573 -0.093054622 0.12793614
0.068982944 -0.092977419 0.12787196
0.069636784 -0.092900217 0.12780775
0.070264906 -0.092900217 0.12780775
0.070919462 -0.092822984 0.12774354
0.071547814 -0.092822984 0.12774354
0.072122365 -0.092977419 0.12787196
0.072723113 -0.093054622 0.12793614
0.073350765 -0.093054622 0.12793614
0.073923208 -0.093209058 0.12806454
0.066999175 -0.093729615 0.12768544
0.067676648 -0.093575507 0.1275567
0.068329573 -0.093498439 0.12749232
0.068982944 -0.0934214 0.12742797
0.069662757 -0.093267292 0.12729923
0.070317306 -0.093190253 0.12723486
0.070945889 -0.093190253 0.12723486
0.071627811 -0.09303613 0.12710613
0.072203062 -0.093190253 0.12723486
0.072804518 -0.093267292 0.12729923
0.07343287 -0.093267292 0.12729923
0.073950805 -0.093575507 0.1275567
0.067701921 -0.093942255 0.12704851
0.068482541 -0.093480945 0.12666132
0.069111593 -0.093480945 0.12666132
0.069792576 -0.09332718 0.12653224
0.070474498 -0.0931734 0.12640318
0.071104489 -0.0931734 0.12640318
0.071707815 -0.093250275 0.12646769
0.072310671 -0.09332718 0.12653224
0.072858788 -0.093557835 0.12672584
0.07343287 -0.093711615 0.12685493
0.074061222 -0.093711615 0.12685493
0.067878753 -0.093849018 0.1261518
0.068584524 -0.09361887 0.12595771
0.069368899 -0.093158528 0.12556949
0.070052229 -0.093005091 0.12544011
0.070684098 -0.093005091 0.12544011
0.071342386 -0.09292838 0.1253754
0.07194782 -0.093005091 0.12544011
0.072552785 -0.093081817 0.12550482
0.073130138 -0.093235269 0.12563421
0.073679194 -0.093465418 0.12582831
0.068915978 -0.093069106 0.12466897
0.069857769 -0.092150435 0.12389061
0.070415728 -0.092380106 0.12408519
0.070998475 -0.092533216 0.12421492
0.071686015 -0.092380106 0.12408519
0.072374493 -0.092226982 0.12395546
0.072929397 -0.092456669 0.12415007
0.070883088 -0.091454193 0.12246552
0.071496248 -0.091530591 0.12253056
0.072108939 -0.091606975 0.12259559
0.072452568 -0.091067806 0.12129626
0.071376413 -0.090913266 0.12031946
0.072020225 -0.090913266 0.12031946
0.072611161 -0.091065377 0.12045018
0.073281176 -0.090989307 0.12038481
0.069697611 -0.090609565 0.11920892
0.070343763 -0.090609565 0.11920892
0.070938446 -0.090761334 0.11933997
0.071558163 -0.09083724 0.11940552
0.072125018 -0.09106493 0.1196021
0.072743326 -0.091140836 0.11966763
0.073414512 -0.09106493 0.1196021
0.074005455 -0.091216713 0.11973315
0.069226645 -0.090536371 0.11829217
0.069874443 -0.090536371 0.11829217
0.070471242 -0.090687811 0.11842357
0.071067095 -0.090839282 0.11855495
0.071687981 -0.090915009 0.11862066
0.072282217 -0.091066465 0.11875202
0.072901927 -0.091142192 0.11881775
0.073574513 -0.091066465 0.11875202
0.074166864 -0.091217905 0.11888342
0.069401838 -0.090465471 0.11737311
0.07002601 -0.090541065 0.11743897
0.07062421 -0.090692177 0.1175707
0.071247205 -0.090767741 0.11763655
0.071843773 -0.090918869 0.11776827
0.072465606 -0.090994418 0.11783411
0.073113389 -0.090994418 0.11783411
0.073707849 -0.091145545 0.11796583
0.07435517 -0.091145545 0.11796583
0.069049932 -0.090019941 0.11612161
0.069602057 -0.090321541 0.11638571
0.070202842 -0.090472341 0.11651775
0.070802689 -0.090623111 0.11664979
0.071401589 -0.09077391 0.11678185
0.071973592 -0.09100011 0.11697993
0.072596595 -0.091075495 0.11704594
0.073219113 -0.091150895 0.11711198
0.073867843 -0.091150895 0.11711198
0.074516572 -0.091150895 0.11711198
0.069124311 -0.090255469 0.11546184
0.069727205 -0.090405911 0.11559419
0.070329152 -0.090556368 0.11572659
0.070904672 -0.090782076 0.11592516
0.071530238 -0.090857297 0.11599134
0.072103426 -0.09108299 0.11618991
0.072727591 -0.091158226 0.11625612
0.073351286 -0.091233462 0.11632229
0.074001186 -0.091233462 0.11632229
0.074597284 -0.091383904 0.11645468
0.068643287 -0.090191677 0.11453563
0.069248281 -0.090341821 0.11466834
0.069877364 -0.090416893 0.11473471
0.070430197 -0.090717167 0.11500014
0.071083143 -0.090717167 0.11500014
0.071658894 -0.090942353 0.11519919
0.072233245 -0.091167539 0.11539826
0.072832383 -0.091317669 0.11553097
0.07345701 -0.091392756 0.11559734
0.074081182 -0.091467813 0.11566368
0.07473179 -0.091467813 0.11566368
0.069372252 -0.090429857 0.11387321
0.070002504 -0.090504766 0.11393975
0.070607036 -0.090654537 0.11407277
0.07121063 -0.090804338 0.11420581
0.071787544 -0.091029063 0.11440539
0.072363064 -0.091253743 0.11460495
0.072989583 -0.091328636 0.11467147
0.073615611 -0.091403559 0.11473799
0.074241191 -0.091478452 0.11480451
0.074893199 -0.091478452 0.11480451
0.06832926 -0.090071127 0.11267629
0.06888888 -0.090370074 0.11294305
0.069521002 -0.090444818 0.11300975
0.07015267 -0.090519547 0.11307642
0.070758604 -0.090669006 0.1132098
0.07133811 -0.090893209 0.11340986
0.071941927 -0.091042683 0.11354323
0.072544813 -0.091192141 0.11367661
0.073146768 -0.091341615 0.11380999
0.073747776 -0.091491088 0.11394337
0.074374527 -0.091565818 0.11401004
0.068426557 -0.09023805 0.11194372
0.069036238 -0.090387166 0.1120774
0.069669768 -0.090461731 0.11214426
0.070302837 -0.090536296 0.11221112
0.070884913 -0.090760022 0.11241169
0.071491078 -0.090909168 0.1125454
0.072096311 -0.091058284 0.11267908
0.072700605 -0.09120743 0.11281279
0.073277757 -0.091431141 0.11301337
0.073879942 -0.091580257 0.11314705
0.074534528 -0.091580257 0.11314705
0.068523854 -0.090406269 0.11120979
0.069109917 -0.090629473 0.11141086
0.069744147 -0.09070389 0.11147788
0.070402943 -0.09070389 0.11147788
0.07101123 -0.090852663 0.1116119
0.07164406 -0.090927079 0.11167893
0.072199225 -0.0912247 0.11194701
0.072830424 -0.091299102 0.11201403
0.073461153 -0.091373518 0.11208105
0.074091405 -0.09144792 0.11214805
0.068056852 -0.090278864 0.11020581
0.068669811 -0.090427339 0.11034019
0.069257274 -0.090650052 0.11054173
0.069892913 -0.090724304 0.11060894
0.07052809 -0.090798512 0.11067611
0.07116279 -0.090872765 0.1107433
0.071746044 -0.091095477 0.11094485
0.072379336 -0.09116973 0.11101204
0.072986215 -0.091318175 0.11114639
0.073618345 -0.091392428 0.11121358
0.074250005 -0.091466665 0.11128075
0.068225488 -0.090228185 0.10926655
0.068840086 -0.090376332 0.10940126
0.06950286 -0.090376332 0.10940126
0.070091262 -0.090598539 0.10960329
0.070728302 -0.090672627 0.10967065
0.07133963 -0.09082076 0.10980535
0.071899027 -0.091117054 0.11007473
0.072533719 -0.091191128 0.11014211
0.073167965 -0.091265187 0.11020944
0.068490483 -0.089884207 0.10805489
0.069010362 -0.09032765 0.10845999
0.069674775 -0.09032765 0.10845999
0.070339195 -0.09032765 0.10845999
0.070928529 -0.09054935 0.10866253
0.071541727 -0.090697169 0.10879757
0.072102986 -0.090992808 0.10906763
0.072765291 -0.090992808 0.10906763
0.073401645 -0.091066688 0.10913514
0.074037522 -0.091140628 0.10920265
0.069253616 -0.09006004 0.10731336
0.069895811 -0.090133786 0.10738105
0.070512749 -0.090281278 0.10751642
0.071153782 -0.090355009 0.10758407
0.071769081 -0.090502486 0.10771945
0.072383448 -0.090649977 0.10785481
0.07299687 -0.090797469 0.10799018
0.07360936 -0.090944946 0.10812555
0.074273311 -0.090944946 0.10812555
0.068948209 -0.089427888 0.1058242
0.069496863 -0.089795783 0.10616343
0.070092291 -0.090016484 0.10636698
0.070686303 -0.09023723 0.10657053
0.071328975 -0.090310797 0.10663836
0.071920656 -0.090531513 0.10684189
0.072536424 -0.090678662 0.10697758
0.07317698 -0.090752259 0.10704544
0.074509099 -0.090752259 0.10704544
0.068996392 -0.089755028 0.10521422
0.069618486 -0.08990185 0.10535026
0.070215084 -0.090122074 0.10555428
0.070859857 -0.090195507 0.10562231
0.071479142 -0.090342298 0.10575831
0.072097488 -0.090489119 0.10589434
0.072740391 -0.090562537 0.10596237
0.07335709 -0.090709358 0.1060984
0.074024789 -0.090709358 0.1060984
0.068564221 -0.089496881 0.10405815
0.069116846 -0.089863107 0.10439906
0.06971579 -0.090082839 0.10460359
0.070362441 -0.090156063 0.10467175
0.071008623 -0.090229318 0.10473993
0.071654335 -0.090302557 0.10480811
0.072299577 -0.090375811 0.10487629
0.072893374 -0.090595543 0.10508083
0.073562935 -0.090595543 0.10508083
0.067985624 -0.089680508 0.10330886
0.068611935 -0.089826673 0.10344554
0.069261394 -0.089899749 0.10351388
0.069910392 -0.089972809 0.1035822
0.070534356 -0.09011896 0.10371891
0.071182176 -0.09019205 0.10378726
0.071829528 -0.090265125 0.10385559
0.072476409 -0.090338215 0.10392395
0.073071845 -0.090557456 0.10412897
0.073717318 -0.090630502 0.10419729
0.074414261 -0.090557456 0.10412897
0.06808012 -0.089865461 0.10255823
0.068755075 -0.089865461 0.10255823
0.069405943 -0.089938357 0.10262671
0.070056342 -0.090011299 0.10269523
0.070730828 -0.090011299 0.10269523
0.07135573 -0.090157107 0.10283226
0.072029747 -0.090157107 0.10283226
0.072678514 -0.090230018 0.10290076
0.073326796 -0.090302944 0.10296927
0.074000344 -0.090302944 0.10296927
0.068850502 -0.090051726 0.10180625
0.069502302 -0.090124488 0.10187493
0.070202291 -0.090051726 0.10180625
0.070853621 -0.090124488 0.10187493
0.071479701 -0.090269968 0.10201228
0.072154887 -0.090269968 0.10201228
0.072830088 -0.090269968 0.10201228
0.073479779 -0.09034273 0.10208096
0.074154727 -0.09034273 0.10208096
0.067662433 -0.090021595 0.10084644
0.06831634 -0.090094179 0.1009153
0.068969786 -0.090166762 0.10098413
0.069598667 -0.09031193 0.10112181
0.070323914 -0.090166762 0.10098413
0.071000978 -0.090166762 0.10098413
0.071628459 -0.09031193 0.10112181
0.072305053 -0.09031193 0.10112181
0.072956391 -0.090384498 0.10119063
0.073607258 -0.090457097 0.10125948
0.074283384 -0.090457097 0.10125948
0.067146979 -0.089993775 0.099884316
0.067802764 -0.09006618 0.099953324
0.06845808 -0.090138614 0.10002233
0.069112927 -0.090211019 0.10009132
0.069767304 -0.090283453 0.10016035
0.070445538 -0.090283453 0.10016035
0.071123779 -0.090283453 0.10016035
0.071752422 -0.090428278 0.10029835
0.072430186 -0.090428278 0.10029835
0.0730827 -0.090500683 0.10036735
0.073734738 -0.090573102 0.10043637
0.074437767 -0.090500683 0.10036735
0.075115301 -0.090500683 0.10036735
0.066559486 -0.090185016 0.099127382
0.067216434 -0.090257287 0.099196553
0.067896314 -0.090257287 0.099196553
0.068576187 -0.090257287 0.099196553
0.069232211 -0.090329513 0.099265724
0.06986367 -0.090474024 0.099404067
0.070542842 -0.090474024 0.099404067
0.071222015 -0.090474024 0.099404067
0.071876399 -0.090546265 0.099473238
0.072530299 -0.090618521 0.099542424
0.07320901 -0.090618521 0.099542424
0.073887713 -0.090618521 0.099542424
0.074566416 -0.090618521 0.099542424
0.065970115 -0.090377584 0.098369122
0.066628247 -0.090449676 0.098438472
0.067309052 -0.090449676 0.098438472
0.067989863 -0.090449676 0.098438472
0.068623438 -0.09059386 0.098577142
0.069279924 -0.090665936 0.098646462
0.069960035 -0.090665936 0.098646462
0.070640147 -0.090665936 0.098646462
0.071320251 -0.090665936 0.098646462
0.071975566 -0.090738028 0.098715812
0.072655439 -0.090738028 0.098715812
0.07333532 -0.090738028 0.098715812
0.073989704 -0.09081009 0.098785147
0.074669339 -0.09081009 0.098785147
0.066015482 -0.090715349 0.097748548
0.066674083 -0.090787247 0.097818047
0.067355365 -0.090787247 0.097818047
0.068036646 -0.090787247 0.097818047
0.068694308 -0.09085916 0.097887546
0.069375351 -0.09085916 0.097887546
0.070080489 -0.090787247 0.097818047
0.07076177 -0.090787247 0.097818047
0.071443051 -0.090787247 0.097818047
0.072099537 -0.09085916 0.097887546
0.072780579 -0.09085916 0.097887546
0.073436365 -0.090931088 0.09795706
0.074117184 -0.090931088 0.09795706
0.074797988 -0.090931088 0.09795706
0.065536037 -0.090551466 0.096639648
0.066196971 -0.0906232 0.096709296
0.06685745 -0.090694949 0.096778959
0.067494288 -0.090838462 0.0969183
0.068153583 -0.090910226 0.096987978
0.068836041 -0.090910226 0.096987978
0.069542348 -0.090838462 0.0969183
0.070200935 -0.090910226 0.096987978
0.070883393 -0.090910226 0.096987978
0.071565844 -0.090910226 0.096987978
0.072248295 -0.090910226 0.096987978
0.072905719 -0.090981975 0.097057641
0.073587939 -0.090981975 0.097057641
0.074270159 -0.090981975 0.097057641
0.074952371 -0.090981975 0.097057641
0.0656932 -0.090533718 0.095667392
0.066355772 -0.090605319 0.095737234
0.067017883 -0.090676889 0.095807076
0.067633212 -0.090891674 0.096016586
0.068317302 -0.090891674 0.096016586
0.068977773 -0.090963259 0.096086398
0.069661632 -0.090963259 0.096086398
0.070345484 -0.090963259 0.096086398
0.071029343 -0.090963259 0.096086398
0.071688637 -0.091034859 0.096156254
0.07234747 -0.09110643 0.096226066
0.073030859 -0.09110643 0.096226066
0.073714249 -0.09110643 0.096226066
0.074397638 -0.09110643 0.096226066
0.067155398 -0.090732604 0.094902858
0.067795292 -0.090875447 0.095042869
0.068434246 -0.091018274 0.095182836
0.069095887 -0.091089696 0.095252857
0.069780916 -0.091089696 0.095252857
0.070490032 -0.091018274 0.095182836
0.071150973 -0.091089696 0.095252857
0.071811438 -0.091161117 0.095322847
0.072496235 -0.091161117 0.095322847
0.073155992 -0.091232553 0.095392853
0.073840559 -0.091232553 0.095392853
0.074474126 -0.091375396 0.095532864
0.06596262 -0.090647757 0.09385632
0.066650689 -0.090647757 0.09385632
0.067270003 -0.090861514 0.094066799
0.067934215 -0.090932786 0.094136983
0.068527795 -0.091217816 0.094417647
0.069261245 -0.091075301 0.094277307
0.069947906 -0.091075301 0.094277307
0.070634574 -0.091075301 0.094277307
0.071272597 -0.091217816 0.094417647
0.071934238 -0.091289058 0.094487816
0.072595403 -0.091360331 0.094557986
0.073306166 -0.091289058 0.094487816
0.073992133 -0.091289058 0.094487816
0.074652597 -0.091360331 0.094557986
0.06540785 -0.090707749 0.092947781
0.066074871 -0.090778843 0.093018144
0.066741429 -0.090849921 0.093088448
0.067384608 -0.090992108 0.093229115
0.068049982 -0.091063201 0.093299463
0.068691514 -0.091205388 0.09344013
0.069402978 -0.091134295 0.093369782
0.070091054 -0.091134295 0.093369782
0.070779122 -0.091134295 0.093369782
0.071442872 -0.091205388 0.09344013
0.072081596 -0.091347545 0.093580768
0.072744168 -0.091418669 0.093651101
0.073431298 -0.091418669 0.093651101
0.074093178 -0.091489732 0.093721434
0.074780084 -0.091489732 0.093721434
0.06616468 -0.090982497 0.092248783
0.066854857 -0.090982497 0.092248783
0.067476287 -0.091195285 0.092460245
0.068188913 -0.091124356 0.092389777
0.068878621 -0.091124356 0.092389777
0.069568336 -0.091124356 0.092389777
0.070305765 -0.090982497 0.092248783
0.070947759 -0.091124356 0.092389777
0.071613155 -0.091195285 0.092460245
0.072278067 -0.091266215 0.092530772
0.072942518 -0.091337115 0.092601255
0.073631525 -0.091337115 0.092601255
0.07427001 -0.091478974 0.092742249
0.066209584 -0.091329008 0.091619417
0.066900231 -0.091329008 0.091619417
0.067613803 -0.091258273 0.091548771
0.068350993 -0.091116741 0.091407448
0.06904234 -0.091116741 0.091407448
0.069780938 -0.09097521 0.091266125
0.070448905 -0.091045976 0.091336772
0.071164578 -0.09097521 0.091266125
0.071832076 -0.091045976 0.091336772
0.072449982 -0.091258273 0.091548771
0.07314086 -0.091258273 0.091548771
0.073806718 -0.091329008 0.091619417
0.0744721 -0.091399774 0.091690093
0.066990979 -0.091535002 0.090847746
0.067705482 -0.0914644 0.090776935
0.06846676 -0.09125264 0.090564445
0.069182672 -0.091182038 0.090493605
0.069899052 -0.091111436 0.090422809
0.070663616 -0.090899646 0.090210304
0.071333215 -0.090970248 0.090281144
0.072026677 -0.090970248 0.090281144
0.072671011 -0.091111436 0.090422809
0.073339209 -0.091182038 0.090493605
0.074006937 -0.09125264 0.090564445
0.074674204 -0.091323212 0.09063527
0.067059033 -0.09181273 0.090145752
0.06782008 -0.091601461 0.089932784
0.068582535 -0.091390163 0.089719787
0.069299616 -0.09131974 0.089648798
0.070064411 -0.091108456 0.089435846
0.070806749 -0.090967596 0.089293852
0.071477763 -0.091038018 0.089364842
0.072148301 -0.091108456 0.089435846
0.072842926 -0.091108456 0.089435846
0.073512763 -0.091178879 0.089506805
0.074207157 -0.091178879 0.089506805
0.068675146 -0.091599643 0.088944659
0.069556884 -0.091037527 0.088375375
0.070300639 -0.090896994 0.088233069
0.07102146 -0.090826735 0.088161916
0.071694583 -0.090896994 0.088233069
0.072367229 -0.090967268 0.088304237
0.073039405 -0.091037527 0.088375375
0.073735908 -0.091037527 0.088375375
0.074332297 -0.091318578 0.088660017
0.068906695 -0.091389835 0.087740228
0.069627047 -0.09131974 0.087668911
0.070489615 -0.090829059 0.087169647
0.071260035 -0.090618744 0.086955667
0.071983665 -0.090548664 0.08688435
0.072659135 -0.090618744 0.086955667
0.073309556 -0.09075895 0.087098315
0.073959053 -0.090899155 0.087240964
0.06997788 -0.090763748 0.086103573
0.070796706 -0.090414107 0.085746124
0.071498595 -0.090414107 0.085746124
0.072176397 -0.090484008 0.085817605
0.072829403 -0.090623885 0.085960582
0.073530592 -0.090623885 0.085960582
0.074206978 -0.090693831 0.086032078
0.069647625 -0.09014298 0.0844616
0.070352085 -0.09014298 0.0844616
0.071103804 -0.090003446 0.08431828
0.071713306 -0.090282515 0.084604919
0.072369121 -0.090422049 0.084748223
0.073024005 -0.090561569 0.084891543
0.073727064 -0.090561569 0.084891543
0.069493242 -0.088970691 0.082239762
0.070133857 -0.089179501 0.082455248
0.07077308 -0.089388296 0.082670689
0.071458139 -0.089457914 0.082742527
0.072071165 -0.089736298 0.083029792
0.072682306 -0.090014696 0.083317086
0.073388882 -0.090014696 0.083317086
0 0 0 1 0 0 0 1 0 0 0 1 0 0 0 0 0 589 1 0 0
