ply
format ascii 1.0
comment PCL generated
element vertex 519
property float x
property float y
property float z
element camera 1
property float view_px
property float view_py
property float view_pz
property float x_axisx
property float x_axisy
property float x_axisz
property float y_axisx
property float y_axisy
property float y_axisz
property float z_axisx
property float z_axisy
property float z_axisz
property float focal
property float scalex
property float scaley
property float centerx
property float centery
property int viewportx
property int viewporty
property float k1
property float k2
end_header
0.069085866 -0.088666752 0.13161692
0.069714688 -0.088666752 0.13161692
0.070317306 -0.088745475 0.13167964
0.070919462 -0.088824168 0.13174236
0.071547814 -0.088824168 0.13174236
0.067777701 -0.089268491 0.13129804
0.068431549 -0.089189947 0.13123517
0.069060132 -0.089189947 0.13123517
0.069662757 -0.089268491 0.13129804
0.070317306 -0.089189947 0.13123517
0.070893019 -0.089347035 0.13136092
0.071521141 -0.089347035 0.13136092
0.072122365 -0.089425579 0.1314238
0.072723113 -0.089504093 0.13148665
0.067124315 -0.089791179 0.13091677
0.067752436 -0.089791179 0.13091677
0.068406053 -0.089712799 0.13085373
0.069034405 -0.089712799 0.13085373
0.069662757 -0.089712799 0.13085373
0.070291109 -0.089712799 0.13085373
0.070919462 -0.089712799 0.13085373
0.071521141 -0.089791179 0.13091677
0.072095469 -0.089947909 0.13104284
0.072723113 -0.089947909 0.13104284
0.073323391 -0.090026304 0.1311059
0.066446617 -0.090391725 0.13059902
0.067099288 -0.090313539 0.13053584
0.067727178 -0.090313539 0.13053584
0.068380557 -0.090235338 0.13047263
0.069008671 -0.090235338 0.13047263
0.069636784 -0.090235338 0.13047263
0.070264906 -0.090235338 0.13047263
0.070893019 -0.090235338 0.13047263
0.071494475 -0.090313539 0.13053584
0.072095469 -0.090391725 0.13059902
0.072695971 -0.090469956 0.13066225
0.073296025 -0.090548158 0.13072546
0.073895596 -0.090626389 0.13078867
0.065794408 -0.090913609 0.1302186
0.066397026 -0.090991646 0.13028197
0.067049235 -0.090913609 0.1302186
0.067701921 -0.090835541 0.13015521
0.068329573 -0.090835541 0.13015521
0.068982944 -0.090757519 0.13009186
0.069610827 -0.090757519 0.13009186
0.070238717 -0.090757519 0.13009186
0.070866592 -0.090757519 0.13009186
0.071494475 -0.090757519 0.13009186
0.072068557 -0.090913609 0.1302186
0.072695971 -0.090913609 0.1302186
0.073296025 -0.090991646 0.13028197
0.073895596 -0.091069698 0.13034534
0.074494705 -0.091147751 0.13040872
0.065745287 -0.091513023 0.12990203
0.066397026 -0.091435134 0.12983848
0.067024209 -0.091435134 0.12983848
0.067676648 -0.091357261 0.12977494
0.068304069 -0.091357261 0.12977494
0.068957217 -0.091279358 0.12971139
0.069584869 -0.091279358 0.12971139
0.070212521 -0.091279358 0.12971139
0.070840165 -0.091279358 0.12971139
0.071467817 -0.091279358 0.12971139
0.072068557 -0.091357261 0.12977494
0.072668836 -0.091435134 0.12983848
0.073296025 -0.091435134 0.12983848
0.073895596 -0.091513023 0.12990203
0.074494705 -0.091590896 0.12996557
0.06572073 -0.092034042 0.12952241
0.066372231 -0.091956347 0.12945871
0.067024209 -0.091878608 0.12939501
0.067651391 -0.091878608 0.12939501
0.068278573 -0.091878608 0.12939501
0.068931475 -0.091800898 0.12933129
0.069584869 -0.091723174 0.12926759
0.070212521 -0.091723174 0.12926759
0.070840165 -0.091723174 0.12926759
0.071467817 -0.091723174 0.12926759
0.072068557 -0.091800898 0.12933129
0.072641701 -0.091956347 0.12945871
0.073296025 -0.091878608 0.12939501
0.073895596 -0.091956347 0.12945871
0.074494705 -0.092034042 0.12952241
0.075121418 -0.092034042 0.12952241
0.06572073 -0.092477202 0.12907927
0.066372231 -0.092399657 0.1290154
0.066999175 -0.092399657 0.1290154
0.067651391 -0.092322096 0.12895152
0.068304069 -0.092244551 0.12888765
0.068957217 -0.09216699 0.12882377
0.069584869 -0.09216699 0.12882377
0.070238717 -0.092089459 0.12875992
0.070866592 -0.092089459 0.12875992
0.071467817 -0.09216699 0.12882377
0.072068557 -0.092244551 0.12888765
0.072668836 -0.092322096 0.12895152
0.073296025 -0.092322096 0.12895152
0.073895596 -0.092399657 0.1290154
0.07452254 -0.092399657 0.1290154
0.075121418 -0.092477202 0.12907927
0.06572073 -0.092920363 0.12863611
0.066347443 -0.092920363 0.12863611
0.066999175 -0.092842981 0.12857208
0.067651391 -0.092765585 0.12850803
0.068304069 -0.092688203 0.128444
0.068931475 -0.092688203 0.128444
0.069610827 -0.092533439 0.12831593
0.070212521 -0.092610806 0.12837996
0.070866592 -0.092533439 0.12831593
0.071494475 -0.092533439 0.12831593
0.072095469 -0.092610806 0.12837996
0.072695971 -0.092688203 0.128444
0.073296025 -0.092765585 0.12850803
0.073895596 -0.092842981 0.12857208
0.07452254 -0.092842981 0.12857208
0.075121418 -0.092920363 0.12863611
0.066347443 -0.093363509 0.12819296
0.067024209 -0.093209058 0.12806454
0.067676648 -0.093131855 0.12800035
0.068304069 -0.093131855 0.12800035
0.068982944 -0.092977419 0.12787196
0.069636784 -0.092900217 0.12780775
0.070291109 -0.092822984 0.12774354
0.070919462 -0.092822984 0.12774354
0.071521141 -0.092900217 0.12780775
0.072149262 -0.092900217 0.12780775
0.072723113 -0.093054622 0.12793614
0.073350765 -0.093054622 0.12793614
0.073950805 -0.093131855 0.12800035
0.07452254 -0.093286291 0.12812877
0.067024209 -0.093652546 0.12762107
0.067701921 -0.093498439 0.12749232
0.068329573 -0.093498439 0.12749232
0.068957217 -0.093498439 0.12749232
0.069636784 -0.093344361 0.12736361
0.070291109 -0.093267292 0.12729923
0.070919462 -0.093267292 0.12729923
0.071547814 -0.093267292 0.12729923
0.072149262 -0.093344361 0.12736361
0.072804518 -0.093267292 0.12729923
0.073350765 -0.093498439 0.12749232
0.073923208 -0.093652546 0.12762107
0.074550383 -0.093652546 0.12762107
0.067802958 -0.093634725 0.12679039
0.068457045 -0.093557835 0.12672584
0.069085866 -0.093557835 0.12672584
0.069766618 -0.093404055 0.12659676
0.070422105 -0.09332718 0.12653224
0.07105162 -0.09332718 0.12653224
0.071654484 -0.093404055 0.12659676
0.072256871 -0.093480945 0.12666132
0.072831646 -0.093634725 0.12679039
0.07343287 -0.093711615 0.12685493
0.074006014 -0.093865395 0.126984
0.067853481 -0.093925759 0.1262165
0.068508044 -0.093849018 0.1261518
0.069291703 -0.093388706 0.12576361
0.069922395 -0.093388706 0.12576361
0.070553094 -0.093388706 0.12576361
0.07121022 -0.093311965 0.12569889
0.071814477 -0.093388706 0.12576361
0.072364479 -0.09361887 0.12595771
0.072913058 -0.093849018 0.1261518
0.073514976 -0.093925759 0.1262165
0.068915978 -0.093069106 0.12466897
0.069574736 -0.092992559 0.12460414
0.070182048 -0.093069106 0.12466897
0.070815086 -0.093069106 0.12466897
0.071421683 -0.093145669 0.12473385
0.072027817 -0.093222216 0.12479872
0.072552785 -0.09352845 0.12505819
0.073075868 -0.093834668 0.12531763
0.069621816 -0.09083724 0.11940552
0.070292771 -0.090761334 0.11933997
0.070938446 -0.090761334 0.11933997
0.071662024 -0.090533674 0.11914341
0.072308414 -0.090533674 0.11914341
0.072981216 -0.090457782 0.11907789
0.069798648 -0.090763554 0.11848927
0.070445739 -0.090763554 0.11848927
0.071118556 -0.090687811 0.11842357
0.071713954 -0.090839282 0.11855495
0.072387002 -0.090763554 0.11848927
0.073166259 -0.090384901 0.1181608
0.073841184 -0.090309188 0.1180951
0.06997548 -0.090692177 0.1175707
0.07062421 -0.090692177 0.1175707
0.071272932 -0.090692177 0.1175707
0.071921661 -0.090692177 0.1175707
0.072570391 -0.090692177 0.1175707
0.073192686 -0.090767741 0.11763655
0.073867843 -0.090692177 0.1175707
0.069627091 -0.090246126 0.11631969
0.070177577 -0.090547711 0.11658378
0.070777193 -0.09069851 0.11671583
0.071427315 -0.09069851 0.11671583
0.072077453 -0.09069851 0.11671583
0.072727591 -0.09069851 0.11671583
0.073351286 -0.09077391 0.11678185
0.074001186 -0.09077391 0.11678185
0.069149107 -0.090180218 0.11539564
0.069727205 -0.090405911 0.11559419
0.070329152 -0.090556368 0.11572659
0.070930168 -0.09070684 0.11585897
0.071555965 -0.090782076 0.11592516
0.072155342 -0.090932548 0.11605754
0.07280618 -0.090932548 0.11605754
0.073430583 -0.091007754 0.11612374
0.074081182 -0.091007754 0.11612374
0.074758686 -0.090932548 0.11605754
0.069372252 -0.089966491 0.11433658
0.069902398 -0.090341821 0.11466834
0.070480719 -0.090567023 0.11486742
0.071108639 -0.090642095 0.11493376
0.071658894 -0.090942353 0.11519919
0.072311133 -0.090942353 0.11519919
0.072937183 -0.09101741 0.11526555
0.073536314 -0.091167539 0.11539826
0.074161187 -0.091242626 0.11546463
0.074839398 -0.091167539 0.11539826
0.069011673 -0.089531049 0.11307496
0.069496214 -0.090055361 0.1135406
0.070077591 -0.090280041 0.11374018
0.070657551 -0.090504766 0.11393975
0.071261622 -0.090654537 0.11407277
0.071839005 -0.090879261 0.11427234
0.072414994 -0.091103956 0.1144719
0.073041968 -0.091178864 0.11453845
0.073694907 -0.091178864 0.11453845
0.074321188 -0.091253743 0.11460495
0.074947007 -0.091328636 0.11467147
0.068523854 -0.089473262 0.1121428
0.069060795 -0.089846939 0.11247624
0.069620185 -0.090145871 0.11274299
0.07022775 -0.090295345 0.11287637
0.070809126 -0.090519547 0.11307642
0.071389101 -0.090743735 0.11327648
0.071941927 -0.091042683 0.11354323
0.072544813 -0.091192141 0.11367661
0.073172972 -0.09126687 0.11374329
0.07382708 -0.09126687 0.11374329
0.074454524 -0.091341615 0.11380999
0.068572506 -0.089790627 0.11154261
0.069109917 -0.090163469 0.11187686
0.069744147 -0.09023805 0.11194372
0.070352897 -0.090387166 0.1120774
0.070935436 -0.090610877 0.11227798
0.071542069 -0.090760022 0.11241169
0.072096311 -0.091058284 0.11267908
0.072700605 -0.09120743 0.11281279
0.07330396 -0.091356561 0.11294651
0.073906377 -0.091505706 0.1130802
0.074561194 -0.091505706 0.1130802
0.068669811 -0.089959845 0.11080769
0.06923271 -0.090257466 0.11107577
0.069868118 -0.090331852 0.11114277
0.07047803 -0.090480655 0.11127682
0.071061745 -0.09070389 0.11147788
0.071669556 -0.090852663 0.1116119
0.072250687 -0.091075897 0.11181296
0.072804458 -0.091373518 0.11208105
0.073461153 -0.091373518 0.11208105
0.074064977 -0.091522306 0.11221506
0.074694529 -0.091596708 0.1122821
0.068201393 -0.089833438 0.10980272
0.068767115 -0.090130374 0.11007145
0.069380067 -0.090278864 0.11020581
0.069992088 -0.090427339 0.11034019
0.070553109 -0.090724304 0.11060894
0.071188062 -0.090798512 0.11067611
0.071797036 -0.090947002 0.11081047
0.072353609 -0.091243953 0.11107922
0.072986215 -0.091318175 0.11114639
0.073592149 -0.091466665 0.11128075
0.074223571 -0.091540903 0.11134796
0.068297759 -0.090005979 0.10906452
0.068913057 -0.090154126 0.10919921
0.069527417 -0.090302259 0.1093339
0.070116051 -0.09052448 0.10953596
0.070728302 -0.090672627 0.10967065
0.07133963 -0.09082076 0.10980535
0.071899027 -0.091117054 0.11007473
0.072507992 -0.091265187 0.11020944
0.073116034 -0.091413334 0.11034414
0.073723137 -0.091561481 0.11047885
0.074355729 -0.09163557 0.1105462
0.068490483 -0.089884207 0.10805489
0.069059014 -0.090179831 0.10832496
0.06969934 -0.090253726 0.10839248
0.070264816 -0.09054935 0.10866253
0.070903495 -0.090623289 0.10873005
0.071516462 -0.090771094 0.10886508
0.072102986 -0.090992808 0.10906763
0.072688103 -0.091214508 0.10927017
0.073323749 -0.091288432 0.10933769
0.073958926 -0.091362327 0.1094052
0.074567199 -0.091510147 0.10954024
0.067991659 -0.089838833 0.10711032
0.069204964 -0.090207532 0.10744873
0.06984669 -0.090281278 0.10751642
0.070487961 -0.090355009 0.10758407
0.071078695 -0.090576246 0.10778713
0.071693301 -0.090723708 0.10792249
0.072281457 -0.090944946 0.10812555
0.072893947 -0.091092438 0.1082609
0.073531464 -0.091166154 0.10832858
0.074168511 -0.091239914 0.10839626
0.068087086 -0.090016484 0.10636698
0.068707302 -0.090163648 0.10650267
0.069375239 -0.090163648 0.10650267
0.069994047 -0.090310797 0.10663836
0.070611924 -0.090457946 0.10677405
0.071228862 -0.090605095 0.10690975
0.071870133 -0.090678662 0.10697758
0.072485432 -0.090825826 0.10711327
0.073074058 -0.091046557 0.10731682
0.073713221 -0.091120124 0.10738467
0.074273311 -0.091414437 0.10765606
0.06820637 -0.090122074 0.10555428
0.068827756 -0.09026891 0.1056903
0.069496863 -0.09026891 0.1056903
0.070141405 -0.090342298 0.10575831
0.07076069 -0.090489119 0.10589434
0.071404055 -0.090562537 0.10596237
0.072046965 -0.09063594 0.10603037
0.072663903 -0.090782762 0.10616638
0.073279902 -0.090929583 0.10630241
0.073920935 -0.091002986 0.10637042
0.074561499 -0.091076404 0.10643844
0.068373367 -0.090082839 0.10460359
0.068996392 -0.090229318 0.10473993
0.069642819 -0.090302557 0.10480811
0.07031332 -0.090302557 0.10480811
0.070959032 -0.090375811 0.10487629
0.071579248 -0.090522304 0.10501266
0.072223797 -0.090595543 0.10508083
0.07286787 -0.090668797 0.10514902
0.073511474 -0.090742037 0.10521717
0.074154615 -0.090815261 0.10528535
0.068516508 -0.09011896 0.10371891
0.069140941 -0.090265125 0.10385559
0.069813095 -0.090265125 0.10385559
0.070460677 -0.090338215 0.10392395
0.071157381 -0.090265125 0.10385559
0.071804494 -0.090338215 0.10392395
0.07240063 -0.090557456 0.10412897
0.073046349 -0.090630502 0.10419729
0.073665857 -0.090776667 0.104334
0.074336372 -0.090776667 0.104334
0.068659648 -0.090157107 0.10283226
0.069285482 -0.090302944 0.10296927
0.069959037 -0.090302944 0.10296927
0.070632592 -0.090302944 0.10296927
0.071306139 -0.090302944 0.10296927
0.071979687 -0.090302944 0.10296927
0.072627984 -0.090375856 0.10303777
0.073301308 -0.090375856 0.10303777
0.07394889 -0.090448752 0.10310628
0.068826646 -0.090124488 0.10187493
0.069454126 -0.090269968 0.10201228
0.070177965 -0.090124488 0.10187493
0.070853621 -0.090124488 0.10187493
0.071479701 -0.090269968 0.10201228
0.072154887 -0.090269968 0.10201228
0.072804816 -0.09034273 0.10208096
0.073479779 -0.09034273 0.10208096
0.074129 -0.090415463 0.10214961
0.074803732 -0.090415463 0.10214961
0.068922073 -0.09031193 0.10112181
0.06964685 -0.090166762 0.10098413
0.070275269 -0.09031193 0.10112181
0.070951864 -0.09031193 0.10112181
0.071628459 -0.09031193 0.10112181
0.072280027 -0.090384498 0.10119063
0.072956391 -0.090384498 0.10119063
0.073607258 -0.090457097 0.10125948
0.074309118 -0.090384498 0.10119063
0.06845808 -0.090138614 0.10002233
0.06908907 -0.090283453 0.10016035
0.069767304 -0.090283453 0.10016035
0.070445538 -0.090283453 0.10016035
0.071123779 -0.090283453 0.10016035
0.071752422 -0.090428278 0.10029835
0.072405167 -0.090500683 0.10036735
0.0730827 -0.090500683 0.10036735
0.073760234 -0.090500683 0.10036735
0.074437767 -0.090500683 0.10036735
0.068552569 -0.090329513 0.099265724
0.069184497 -0.090474024 0.099404067
0.06986367 -0.090474024 0.099404067
0.070542842 -0.090474024 0.099404067
0.071271136 -0.090329513 0.099265724
0.071901187 -0.090474024 0.099404067
0.07258036 -0.090474024 0.099404067
0.073234275 -0.090546265 0.099473238
0.073913217 -0.090546265 0.099473238
0.074592151 -0.090546265 0.099473238
0.068599813 -0.090665936 0.098646462
0.069303781 -0.09059386 0.098577142
0.069984123 -0.09059386 0.098577142
0.070640147 -0.090665936 0.098646462
0.071344808 -0.09059386 0.098577142
0.071975566 -0.090738028 0.098715812
0.072680473 -0.090665936 0.098646462
0.073360585 -0.090665936 0.098646462
0.074015193 -0.090738028 0.098715812
0.074695066 -0.090738028 0.098715812
0.068717927 -0.090787247 0.097818047
0.069423057 -0.090715349 0.097748548
0.070104577 -0.090715349 0.097748548
0.070786089 -0.090715349 0.097748548
0.071443051 -0.090787247 0.097818047
0.072099537 -0.09085916 0.097887546
0.072780579 -0.09085916 0.097887546
0.073486887 -0.090787247 0.097818047
0.07414268 -0.09085916 0.097887546
0.074823722 -0.09085916 0.097887546
0.068859667 -0.090838462 0.0969183
0.069542348 -0.090838462 0.0969183
0.07022503 -0.090838462 0.0969183
0.070907719 -0.090838462 0.0969183
0.071565844 -0.090910226 0.096987978
0.072248295 -0.090910226 0.096987978
0.072930746 -0.090910226 0.096987978
0.073613197 -0.090910226 0.096987978
0.074270159 -0.090981975 0.097057641
0.074952371 -0.090981975 0.097057641
0.069685481 -0.090891674 0.096016586
0.070369571 -0.090891674 0.096016586
0.071029343 -0.090963259 0.096086398
0.071688637 -0.091034859 0.096156254
0.072372258 -0.091034859 0.096156254
0.073055878 -0.091034859 0.096156254
0.073739506 -0.091034859 0.096156254
0.074397638 -0.09110643 0.096226066
0.069852479 -0.090875447 0.095042869
0.070538208 -0.090875447 0.095042869
0.071150973 -0.091089696 0.095252857
0.071811438 -0.091161117 0.095322847
0.072496235 -0.091161117 0.095322847
0.073181026 -0.091161117 0.095322847
0.073865823 -0.091161117 0.095322847
0.074550621 -0.091161117 0.095322847
0.069284871 -0.091004029 0.094207138
0.06997177 -0.091004029 0.094207138
0.070634574 -0.091075301 0.094277307
0.071321249 -0.091075301 0.094277307
0.071934238 -0.091289058 0.094487816
0.072644986 -0.091217816 0.094417647
0.073331185 -0.091217816 0.094417647
0.074017391 -0.091217816 0.094417647
0.069497474 -0.090849921 0.093088448
0.070186481 -0.090849921 0.093088448
0.070827305 -0.090992108 0.093229115
0.071491517 -0.091063201 0.093299463
0.072155267 -0.091134295 0.093369782
0.07281854 -0.091205388 0.09344013
0.073531412 -0.091134295 0.093369782
0.074219488 -0.091134295 0.093369782
0.068972178 -0.090840638 0.092107788
0.06968645 -0.090769738 0.092037305
0.070377328 -0.090769738 0.092037305
0.071020029 -0.090911582 0.092178285
0.071686126 -0.090982497 0.092248783
0.072327182 -0.091124356 0.092389777
0.073016897 -0.091124356 0.092389777
0.073681578 -0.091195285 0.092460245
0.07439632 -0.091124356 0.092389777
0.069182672 -0.090692177 0.090983465
0.069875434 -0.090692177 0.090983465
0.070568189 -0.090692177 0.090983465
0.071236849 -0.090762943 0.091054142
0.071905054 -0.090833694 0.091124788
0.072548218 -0.09097521 0.091266125
0.073240034 -0.09097521 0.091266125
0.073931858 -0.09097521 0.091266125
0.074598417 -0.091045976 0.091336772
0.069299616 -0.090829059 0.090139478
0.070040792 -0.090687856 0.089997828
0.070735186 -0.090687856 0.089997828
0.07135731 -0.090899646 0.090210304
0.072051004 -0.090899646 0.090210304
0.072744697 -0.090899646 0.090210304
0.073438391 -0.090899646 0.090210304
0.074132077 -0.090899646 0.090210304
0.070182517 -0.090756327 0.08908087
0.070878319 -0.090756327 0.08908087
0.071550034 -0.090826735 0.089151859
0.072196953 -0.090967596 0.089293852
0.072941169 -0.090826735 0.089151859
0.073587142 -0.090967596 0.089293852
0.070489615 -0.090334892 0.087663814
0.071188457 -0.090334892 0.087663814
0.071815029 -0.090545684 0.087877274
0.072464526 -0.090686202 0.088019595
0.073186755 -0.090615958 0.087948456
0.07385987 -0.090686202 0.088019595
0.070725843 -0.090128064 0.086456403
0.071403168 -0.090198174 0.086527735
0.072031848 -0.090408474 0.086741701
0.072683454 -0.090548664 0.08688435
0.073407792 -0.090478584 0.086813033
0.074058227 -0.090618744 0.086955667
0.07105656 -0.089644849 0.084959731
0.071665592 -0.089924589 0.085245684
0.072224572 -0.090344176 0.085674644
0.072902381 -0.090414107 0.085746124
0.073579714 -0.090484008 0.085817605
0.074231781 -0.090623885 0.085960582
0.070562586 -0.089515075 0.083816707
0.071245536 -0.089584857 0.083888367
0.071856454 -0.089863911 0.084174976
0.072417304 -0.090282515 0.084604919
0.073072657 -0.090422049 0.084748223
0.073727064 -0.090561569 0.084891543
0.072142728 -0.089527503 0.082814336
0.072754577 -0.089805916 0.08310163
0.073486187 -0.089736298 0.083029792
0.074120015 -0.089945123 0.083245263
0 0 0 1 0 0 0 1 0 0 0 1 0 0 0 0 0 519 1 0 0
