ply
format ascii 1.0
comment PCL generated
element vertex 571
property float x
property float y
property float z
element camera 1
property float view_px
property float view_py
property float view_pz
property float x_axisx
property float x_axisy
property float x_axisz
property float y_axisx
property float y_axisy
property float y_axisz
property float z_axisx
property float z_axisy
property float z_axisz
property float focal
property float scalex
property float scaley
property float centerx
property float centery
property int viewportx
property int viewporty
property float k1
property float k2
end_header
0.068533532 -0.088430643 0.13142878
0.069163054 -0.088430643 0.13142878
0.069818549 -0.088351905 0.13136606
0.070474498 -0.088273212 0.13130337
0.071078055 -0.088351905 0.13136606
0.071681149 -0.088430643 0.13142878
0.067853481 -0.089032859 0.1311094
0.068482541 -0.089032859 0.1311094
0.069137327 -0.0889543 0.13104652
0.069792576 -0.088875771 0.13098364
0.070395909 -0.0889543 0.13104652
0.071025193 -0.0889543 0.13104652
0.071654484 -0.0889543 0.13104652
0.072256871 -0.089032859 0.1311094
0.067174368 -0.089634418 0.13079068
0.067802958 -0.089634418 0.13079068
0.068457045 -0.089556038 0.13072763
0.069085866 -0.089556038 0.13072763
0.069740646 -0.089477658 0.13066459
0.070395909 -0.089399278 0.13060154
0.070998751 -0.089477658 0.13066459
0.071627811 -0.089477658 0.13066459
0.072229974 -0.089556038 0.13072763
0.072831646 -0.089634418 0.13079068
0.066471405 -0.090313539 0.13053584
0.067149349 -0.090157107 0.13040942
0.067777701 -0.090157107 0.13040942
0.068406053 -0.090157107 0.13040942
0.069085866 -0.090000674 0.130283
0.069714688 -0.090000674 0.130283
0.070369706 -0.089922473 0.13021979
0.070972323 -0.090000674 0.130283
0.071574479 -0.090078905 0.13034621
0.072203062 -0.090078905 0.13034621
0.072804518 -0.090157107 0.13040942
0.073405497 -0.090235338 0.13047263
0.065794408 -0.090913609 0.1302186
0.066446617 -0.090835541 0.13015521
0.067099288 -0.090757519 0.13009186
0.067701921 -0.090835541 0.13015521
0.068380557 -0.090679482 0.13002849
0.069034405 -0.090601414 0.1299651
0.069662757 -0.090601414 0.1299651
0.070317306 -0.090523377 0.12990174
0.070945889 -0.090523377 0.12990174
0.071521141 -0.090679482 0.13002849
0.072176166 -0.090601414 0.1299651
0.072750241 -0.090757519 0.13009186
0.073350765 -0.090835541 0.13015521
0.073978417 -0.090835541 0.13015521
0.065769851 -0.091435134 0.12983848
0.066397026 -0.091435134 0.12983848
0.067024209 -0.091435134 0.12983848
0.067701921 -0.091279358 0.12971139
0.068329573 -0.091279358 0.12971139
0.068982944 -0.091201499 0.12964788
0.069636784 -0.091123626 0.12958434
0.070264906 -0.091123626 0.12958434
0.070893019 -0.091123626 0.12958434
0.071521141 -0.091123626 0.12958434
0.072095469 -0.091279358 0.12971139
0.072723113 -0.091279358 0.12971139
0.073350765 -0.091279358 0.12971139
0.073950805 -0.091357261 0.12977494
0.074578218 -0.091357261 0.12977494
0.065745287 -0.091956347 0.12945871
0.066397026 -0.091878608 0.12939501
0.067024209 -0.091878608 0.12939501
0.067651391 -0.091878608 0.12939501
0.068304069 -0.091800898 0.12933129
0.068957217 -0.091723174 0.12926759
0.069610827 -0.091645479 0.1292039
0.070238717 -0.091645479 0.1292039
0.070866592 -0.091645479 0.1292039
0.071494475 -0.091645479 0.1292039
0.072095469 -0.091723174 0.12926759
0.072723113 -0.091723174 0.12926759
0.073350765 -0.091723174 0.12926759
0.073950805 -0.091800898 0.12933129
0.074550383 -0.091878608 0.12939501
0.065696165 -0.092554763 0.12914315
0.066347443 -0.092477202 0.12907927
0.066999175 -0.092399657 0.1290154
0.067651391 -0.092322096 0.12895152
0.068304069 -0.092244551 0.12888765
0.068931475 -0.092244551 0.12888765
0.069584869 -0.09216699 0.12882377
0.070238717 -0.092089459 0.12875992
0.070866592 -0.092089459 0.12875992
0.071494475 -0.092089459 0.12875992
0.072122365 -0.092089459 0.12875992
0.072723113 -0.09216699 0.12882377
0.073350765 -0.09216699 0.12882377
0.073978417 -0.09216699 0.12882377
0.074578218 -0.092244551 0.12888765
0.06572073 -0.092920363 0.12863611
0.066347443 -0.092920363 0.12863611
0.066999175 -0.092842981 0.12857208
0.067626126 -0.092842981 0.12857208
0.068278573 -0.092765585 0.12850803
0.068931475 -0.092688203 0.128444
0.069584869 -0.092610806 0.12837996
0.070238717 -0.092533439 0.12831593
0.070866592 -0.092533439 0.12831593
0.071521141 -0.092456073 0.1282519
0.072095469 -0.092610806 0.12837996
0.072723113 -0.092610806 0.12837996
0.073350765 -0.092610806 0.12837996
0.073950805 -0.092688203 0.128444
0.074578218 -0.092688203 0.128444
0.066372231 -0.093286291 0.12812877
0.066999175 -0.093286291 0.12812877
0.067651391 -0.093209058 0.12806454
0.068278573 -0.093209058 0.12806454
0.068931475 -0.093131855 0.12800035
0.069610827 -0.092977419 0.12787196
0.070264906 -0.092900217 0.12780775
0.070893019 -0.092900217 0.12780775
0.071521141 -0.092900217 0.12780775
0.072122365 -0.092977419 0.12787196
0.072750241 -0.092977419 0.12787196
0.073350765 -0.093054622 0.12793614
0.073950805 -0.093131855 0.12800035
0.066999175 -0.093729615 0.12768544
0.067626126 -0.093729615 0.12768544
0.068278573 -0.093652546 0.12762107
0.068982944 -0.0934214 0.12742797
0.069584869 -0.093498439 0.12749232
0.070238717 -0.0934214 0.12742797
0.070893019 -0.093344361 0.12736361
0.071601145 -0.093113184 0.12717049
0.072203062 -0.093190253 0.12723486
0.072804518 -0.093267292 0.12729923
0.073378131 -0.0934214 0.12742797
0.074006014 -0.0934214 0.12742797
0.067752436 -0.093788505 0.12691946
0.068431549 -0.093634725 0.12679039
0.069111593 -0.093480945 0.12666132
0.069766618 -0.093404055 0.12659676
0.070395909 -0.093404055 0.12659676
0.07105162 -0.09332718 0.12653224
0.071654484 -0.093404055 0.12659676
0.072256871 -0.093480945 0.12666132
0.072831646 -0.093634725 0.12679039
0.07343287 -0.093711615 0.12685493
0.06790401 -0.093772322 0.1260871
0.068559036 -0.093695566 0.1260224
0.069214515 -0.09361887 0.12595771
0.069896437 -0.093465418 0.12582831
0.070553094 -0.093388706 0.12576361
0.07121022 -0.093311965 0.12569889
0.071814477 -0.093388706 0.12576361
0.072337575 -0.093695566 0.1260224
0.072913058 -0.093849018 0.1261518
0.073542349 -0.093849018 0.1261518
0.06942036 -0.093451887 0.12499331
0.070104152 -0.093298778 0.12486359
0.070762686 -0.093222216 0.12479872
0.071421683 -0.093145669 0.12473385
0.071506232 -0.090532973 0.11999264
0.072151214 -0.090532973 0.11999264
0.072769761 -0.090609014 0.120058
0.07344117 -0.090532973 0.11999264
0.069326751 -0.089774743 0.11848813
0.069874443 -0.090078309 0.11875023
0.070445739 -0.090305999 0.11894682
0.071015634 -0.090533674 0.11914341
0.071662024 -0.090533674 0.11914341
0.072256014 -0.090685472 0.11927447
0.072875492 -0.090761334 0.11933997
0.073521182 -0.090761334 0.11933997
0.068520486 -0.088718906 0.11671555
0.069074728 -0.089021802 0.1169783
0.069602057 -0.089400455 0.1173068
0.07002601 -0.09008202 0.11789802
0.07054773 -0.090460643 0.1182265
0.071118556 -0.090687811 0.11842357
0.071739912 -0.090763554 0.11848927
0.072360806 -0.090839282 0.11855495
0.072954789 -0.090990737 0.11868635
0.073627844 -0.090915009 0.11862066
0.074274465 -0.090915009 0.11862066
0.068037353 -0.088652 0.11579251
0.068569608 -0.089029804 0.1161218
0.069124311 -0.089332074 0.11638524
0.069677144 -0.089634299 0.11664866
0.070177577 -0.090087667 0.11704382
0.070675202 -0.090541065 0.11743897
0.071298666 -0.090616614 0.11750482
0.071921661 -0.090692177 0.1175707
0.072518006 -0.09084329 0.11770241
0.073139817 -0.090918869 0.11776827
0.07376118 -0.090994418 0.11783411
0.074435875 -0.090918869 0.11776827
0.067526847 -0.088662803 0.11493316
0.068110332 -0.088888988 0.11513123
0.068643287 -0.089265957 0.11546135
0.069149107 -0.089718357 0.1158575
0.069727205 -0.089944541 0.11605556
0.070253365 -0.090321541 0.11638571
0.070828184 -0.090547711 0.11658378
0.071427315 -0.09069851 0.11671583
0.071999565 -0.090924695 0.11691388
0.072596595 -0.091075495 0.11704594
0.073219113 -0.091150895 0.11711198
0.073867843 -0.091150895 0.11711198
0.074516572 -0.091150895 0.11711198
0.067526847 -0.089126989 0.11446898
0.068158984 -0.08920221 0.11453515
0.068692401 -0.08957839 0.11486612
0.069248281 -0.089879289 0.11513087
0.069802284 -0.090180218 0.11539564
0.070379682 -0.090405911 0.11559419
0.070981167 -0.090556368 0.11572659
0.071530238 -0.090857297 0.11599134
0.072129384 -0.091007754 0.11612374
0.072727591 -0.091158226 0.11625612
0.073298417 -0.091383904 0.11645468
0.073947854 -0.091383904 0.11645468
0.074597284 -0.091383904 0.11645468
0.06757503 -0.089441046 0.11387208
0.068183303 -0.089591175 0.11400479
0.068790644 -0.089741305 0.1141375
0.069297872 -0.090191677 0.11453563
0.069902398 -0.090341821 0.11466834
0.070455462 -0.090642095 0.11493376
0.071057647 -0.090792209 0.11506648
0.071658894 -0.090942353 0.11519919
0.072207272 -0.091242626 0.11546463
0.072832383 -0.091317669 0.11553097
0.073430583 -0.091467813 0.11566368
0.074081182 -0.091467813 0.11566368
0.074677989 -0.091617942 0.1157964
0.067647301 -0.089680851 0.113208
0.068231955 -0.08990556 0.11340757
0.068864316 -0.089980468 0.1134741
0.069421835 -0.090280041 0.11374018
0.07002753 -0.090429857 0.11387321
0.070607036 -0.090654537 0.11407277
0.07121063 -0.090804338 0.11420581
0.071787544 -0.091029063 0.11440539
0.072363064 -0.091253743 0.11460495
0.072963379 -0.091403559 0.11473799
0.073589183 -0.091478452 0.11480451
0.07418786 -0.091628253 0.11493756
0.067719579 -0.089921653 0.11254291
0.06832926 -0.090071127 0.11267629
0.068913437 -0.090295345 0.11287637
0.069521002 -0.090444818 0.11300975
0.07015267 -0.090519547 0.11307642
0.070758604 -0.090669006 0.1132098
0.07133811 -0.090893209 0.11340986
0.071890466 -0.091192141 0.11367661
0.072518855 -0.09126687 0.11374329
0.073094368 -0.091491088 0.11394337
0.073721342 -0.091565818 0.11401004
0.074347854 -0.091640562 0.11407673
0.067840032 -0.090014324 0.11174315
0.068402231 -0.090312615 0.11201057
0.069060795 -0.090312615 0.11201057
0.06964498 -0.090536296 0.11221112
0.070302837 -0.090536296 0.11221112
0.070884913 -0.090760022 0.11241169
0.071491078 -0.090909168 0.1125454
0.072070576 -0.091132864 0.11274594
0.072700605 -0.09120743 0.11281279
0.073277757 -0.091431141 0.11301337
0.073906377 -0.091505706 0.1130802
0.067912303 -0.090257466 0.11107577
0.068523854 -0.090406269 0.11120979
0.069159031 -0.090480655 0.11127682
0.069768943 -0.090629473 0.11141086
0.070402943 -0.09070389 0.11147788
0.07101123 -0.090852663 0.1116119
0.071618564 -0.091001481 0.11174594
0.072250687 -0.091075897 0.11181296
0.072830424 -0.091299102 0.11201403
0.073461153 -0.091373518 0.11208105
0.074091405 -0.09144792 0.11214805
0.068056852 -0.090278864 0.11020581
0.068621159 -0.090575814 0.11047457
0.069257274 -0.090650052 0.11054173
0.069892913 -0.090724304 0.11060894
0.07052809 -0.090798512 0.11067611
0.07116279 -0.090872765 0.1107433
0.071746044 -0.091095477 0.11094485
0.072379336 -0.09116973 0.11101204
0.072986215 -0.091318175 0.11114639
0.073618345 -0.091392428 0.11121358
0.074276432 -0.091392428 0.11121358
0.068840086 -0.090376332 0.10940126
0.069453746 -0.09052448 0.10953596
0.070091262 -0.090598539 0.10960329
0.070703283 -0.090746686 0.10973799
0.071314365 -0.090894833 0.1098727
0.071924515 -0.091042981 0.11000741
0.072533719 -0.091191128 0.11014211
0.073167965 -0.091265187 0.11020944
0.073827937 -0.091265187 0.11020944
0.068490483 -0.089884207 0.10805489
0.069059014 -0.090179831 0.10832496
0.06969934 -0.090253726 0.10839248
0.070289604 -0.09047547 0.10859503
0.070903495 -0.090623289 0.10873005
0.071491197 -0.090844989 0.1089326
0.072102986 -0.090992808 0.10906763
0.07271383 -0.091140628 0.10920265
0.073349714 -0.091214508 0.10927017
0.073985122 -0.091288432 0.10933769
0.069277935 -0.089986309 0.10724568
0.069920376 -0.09006004 0.10731336
0.070512749 -0.090281278 0.10751642
0.071103722 -0.090502486 0.10771945
0.071718559 -0.090649977 0.10785481
0.072332457 -0.090797469 0.10799018
0.072919682 -0.091018677 0.1081932
0.073557429 -0.091092438 0.1082609
0.074194714 -0.091166154 0.10832858
0.068900026 -0.089575052 0.10595991
0.069545515 -0.089648619 0.10602775
0.070092291 -0.090016484 0.10636698
0.070711099 -0.090163648 0.10650267
0.071278915 -0.090457946 0.10677405
0.071920656 -0.090531513 0.10684189
0.072510928 -0.090752259 0.10704544
0.073099792 -0.09097296 0.10724898
0.073739178 -0.091046557 0.10731682
0.07437811 -0.091120124 0.10738467
0.069020487 -0.08968161 0.1051462
0.069642819 -0.089828432 0.10528223
0.070239641 -0.090048671 0.10548629
0.070884652 -0.090122074 0.10555428
0.071479142 -0.090342298 0.10575831
0.072072223 -0.090562537 0.10596237
0.072689399 -0.090709358 0.1060984
0.073920935 -0.091002986 0.10637042
0.074587703 -0.091002986 0.10637042
0.068516508 -0.089643359 0.10419451
0.069140941 -0.089789852 0.10433087
0.069788761 -0.089863107 0.10439906
0.070386998 -0.090082839 0.10460359
0.071033418 -0.090156063 0.10467175
0.071654335 -0.090302557 0.10480811
0.072249055 -0.090522304 0.10501266
0.072842374 -0.090742037 0.10521717
0.073485747 -0.090815261 0.10528535
0.068635792 -0.089753583 0.10337719
0.069285482 -0.089826673 0.10344554
0.06986174 -0.09011896 0.10371891
0.070534356 -0.09011896 0.10371891
0.071206972 -0.09011896 0.10371891
0.071804494 -0.090338215 0.10392395
0.072451152 -0.090411291 0.10399228
0.073046349 -0.090630502 0.10419729
0.073665857 -0.090776667 0.104334
0.074336372 -0.090776667 0.104334
0.068103746 -0.089792535 0.10248971
0.068755075 -0.089865461 0.10255823
0.069381848 -0.090011299 0.10269523
0.070056342 -0.090011299 0.10269523
0.070681706 -0.090157107 0.10283226
0.07135573 -0.090157107 0.10283226
0.071979687 -0.090302944 0.10296927
0.072653241 -0.090302944 0.10296927
0.073275812 -0.090448752 0.10310628
0.073897429 -0.090594575 0.10324329
0.06822186 -0.089906231 0.10166889
0.068874359 -0.089979008 0.10173757
0.069526397 -0.090051726 0.10180625
0.070177965 -0.090124488 0.10187493
0.070853621 -0.090124488 0.10187493
0.071479701 -0.090269968 0.10201228
0.072154887 -0.090269968 0.10201228
0.072804816 -0.09034273 0.10208096
0.073454283 -0.090415463 0.10214961
0.074103266 -0.090488225 0.1022183
0.067662433 -0.090021595 0.10084644
0.06831634 -0.090094179 0.1009153
0.068993635 -0.090094179 0.1009153
0.069670938 -0.090094179 0.1009153
0.070323914 -0.090166762 0.10098413
0.070951864 -0.09031193 0.10112181
0.071603663 -0.090384498 0.10119063
0.072280027 -0.090384498 0.10119063
0.072931126 -0.090457097 0.10125948
0.073607258 -0.090457097 0.10125948
0.074283384 -0.090457097 0.10125948
0.06777937 -0.090138614 0.10002233
0.068434462 -0.090211019 0.10009132
0.069112927 -0.090211019 0.10009132
0.069791399 -0.090211019 0.10009132
0.070396893 -0.090428278 0.10029835
0.071123779 -0.090283453 0.10016035
0.071752422 -0.090428278 0.10029835
0.072405167 -0.090500683 0.10036735
0.073057435 -0.090573102 0.10043637
0.073734738 -0.090573102 0.10043637
0.074386306 -0.090645522 0.10050537
0.075089335 -0.090573102 0.10043637
0.067896314 -0.090257287 0.099196553
0.068576187 -0.090257287 0.099196553
0.069232211 -0.090329513 0.099265724
0.06986367 -0.090474024 0.099404067
0.070518523 -0.090546265 0.099473238
0.071222015 -0.090474024 0.099404067
0.071851596 -0.090618521 0.099542424
0.072530299 -0.090618521 0.099542424
0.073183753 -0.090690777 0.099611565
0.073836721 -0.090763032 0.099680766
0.07454069 -0.090690777 0.099611565
0.067332216 -0.090377584 0.098369122
0.067943089 -0.09059386 0.098577142
0.068623438 -0.09059386 0.098577142
0.069279924 -0.090665936 0.098646462
0.069960035 -0.090665936 0.098646462
0.070615813 -0.090738028 0.098715812
0.071320251 -0.090665936 0.098646462
0.071950771 -0.09081009 0.098785147
0.072630413 -0.09081009 0.098785147
0.073310055 -0.09081009 0.098785147
0.073989704 -0.09081009 0.098785147
0.074617878 -0.090954274 0.098923817
0.068060026 -0.090715349 0.097748548
0.068717927 -0.090787247 0.097818047
0.069399208 -0.090787247 0.097818047
0.070080489 -0.090787247 0.097818047
0.070737444 -0.09085916 0.097887546
0.071418494 -0.09085916 0.097887546
0.072074741 -0.090931088 0.09795706
0.072755553 -0.090931088 0.09795706
0.073436365 -0.090931088 0.09795706
0.074066184 -0.091074929 0.098096073
0.074746527 -0.091074929 0.098096073
0.066880368 -0.0906232 0.096709296
0.067540601 -0.090694949 0.096778959
0.068176977 -0.090838462 0.0969183
0.068836041 -0.090910226 0.096987978
0.069518492 -0.090910226 0.096987978
0.070200935 -0.090910226 0.096987978
0.070859075 -0.090981975 0.097057641
0.071541287 -0.090981975 0.097057641
0.072198704 -0.091053739 0.097127318
0.072880685 -0.091053739 0.097127318
0.073562674 -0.091053739 0.097127318
0.074244663 -0.091053739 0.097127318
0.066355772 -0.090605319 0.095737234
0.066994965 -0.090748489 0.095876917
0.067633212 -0.090891674 0.096016586
0.068293914 -0.090963259 0.096086398
0.068977773 -0.090963259 0.096086398
0.069661632 -0.090963259 0.096086398
0.070321389 -0.091034859 0.096156254
0.070980698 -0.09110643 0.096226066
0.07166408 -0.09110643 0.096226066
0.072322682 -0.091178015 0.096295893
0.073030859 -0.09110643 0.096226066
0.073714249 -0.09110643 0.096226066
0.066423826 -0.090875447 0.095042869
0.067109562 -0.090875447 0.095042869
0.067748986 -0.091018274 0.095182836
0.068434246 -0.091018274 0.095182836
0.069095887 -0.091089696 0.095252857
0.069780916 -0.091089696 0.095252857
0.070465937 -0.091089696 0.095252857
0.071126647 -0.091161117 0.095322847
0.07178688 -0.091232553 0.095392853
0.072471432 -0.091232553 0.095392853
0.073155992 -0.091232553 0.095392853
0.073840559 -0.091232553 0.095392853
0.074525118 -0.091232553 0.095392853
0.066514574 -0.091075301 0.094277307
0.067155398 -0.091217816 0.094417647
0.067841597 -0.091217816 0.094417647
0.068527795 -0.091217816 0.094417647
0.069214001 -0.091217816 0.094417647
0.069900192 -0.091217816 0.094417647
0.070586391 -0.091217816 0.094417647
0.071248271 -0.091289058 0.094487816
0.071909674 -0.091360331 0.094557986
0.072595403 -0.091360331 0.094557986
0.073281132 -0.091360331 0.094557986
0.073966861 -0.091360331 0.094557986
0.066559941 -0.091418669 0.093651101
0.067247085 -0.091418669 0.093651101
0.067957371 -0.091347545 0.093580768
0.068621352 -0.091418669 0.093651101
0.069379352 -0.091205388 0.09344013
0.070019484 -0.091347545 0.093580768
0.070755027 -0.091205388 0.09344013
0.071394227 -0.091347545 0.093580768
0.072057031 -0.091418669 0.093651101
0.072744168 -0.091418669 0.093651101
0.073431298 -0.091418669 0.093651101
0.074093178 -0.091489732 0.093721434
0.066628002 -0.091691762 0.092953756
0.067338765 -0.091620833 0.092883244
0.068049982 -0.091549918 0.092812747
0.068808459 -0.091337115 0.092601255
0.069521092 -0.091266215 0.092530772
0.070234194 -0.091195285 0.092460245
0.070923671 -0.091195285 0.092460245
0.071588822 -0.091266215 0.092530772
0.072204389 -0.091478974 0.092742249
0.072892927 -0.091478974 0.092742249
0.073631525 -0.091337115 0.092601255
0.07427001 -0.091478974 0.092742249
0.066741429 -0.091824323 0.092114046
0.067453362 -0.091753587 0.0920434
0.068188913 -0.091612056 0.091902077
0.068948783 -0.091399774 0.091690093
0.06968645 -0.091258273 0.091548771
0.070425048 -0.091116741 0.091407448
0.07114049 -0.091045976 0.091336772
0.071759097 -0.091258273 0.091548771
0.07240086 -0.091399774 0.091690093
0.073116072 -0.091329008 0.091619417
0.073806718 -0.091329008 0.091619417
0.074446842 -0.091470525 0.091760755
0.06830468 -0.091746792 0.091060251
0.069089122 -0.0914644 0.090776935
0.069851808 -0.09125264 0.090564445
0.070568189 -0.091182038 0.090493605
0.071285032 -0.091111436 0.090422809
0.071978025 -0.091111436 0.090422809
0.072621897 -0.09125264 0.090564445
0.073314413 -0.09125264 0.090564445
0.073931858 -0.0914644 0.090776935
0.067751326 -0.09181273 0.090145752
0.068489917 -0.091671884 0.090003759
0.069276229 -0.091390163 0.089719787
0.069993541 -0.09131974 0.089648798
0.070735186 -0.091178879 0.089506805
0.071453668 -0.091108456 0.089435846
0.072148301 -0.091108456 0.089435846
0.072769254 -0.09131974 0.089648798
0.073463179 -0.09131974 0.089648798
0.074132077 -0.091390163 0.089719787
0.069486715 -0.091248333 0.088588864
0.070277013 -0.090967268 0.088304237
0.070973746 -0.090967268 0.088304237
0.071694583 -0.090896994 0.088233069
0.072391555 -0.090896994 0.088233069
0.073088527 -0.090896994 0.088233069
0.073735908 -0.091037527 0.088375375
0.068929844 -0.09131974 0.087668911
0.069697209 -0.091109455 0.08745496
0.070607729 -0.090478584 0.086813033
0.071283884 -0.090548664 0.08688435
0.071959578 -0.090618744 0.086955667
0.072659135 -0.090618744 0.086955667
0.073358677 -0.090618744 0.086955667
0.073983841 -0.090829059 0.087169647
0.070258535 -0.089924589 0.085245684
0.070891201 -0.090134367 0.085460156
0.071570165 -0.090204298 0.085531667
0.072200485 -0.090414107 0.085746124
0.072878055 -0.090484008 0.085817605
0.073579714 -0.090484008 0.085817605
0.074231781 -0.090623885 0.085960582
0.070445642 -0.089863911 0.084174976
0.071080178 -0.090073213 0.084389955
0.071713306 -0.090282515 0.084604919
0.072393216 -0.090352282 0.084676549
0.073072657 -0.090422049 0.084748223
0.073776186 -0.090422049 0.084748223
0.070041239 -0.089457914 0.082742527
0.070749685 -0.089457914 0.082742527
0.07143452 -0.089527503 0.082814336
0.072071165 -0.089736298 0.083029792
0.072706394 -0.089945123 0.083245263
0.073461853 -0.089805916 0.08310163
0 0 0 1 0 0 0 1 0 0 0 1 0 0 0 0 0 571 1 0 0
