ply
format ascii 1.0
comment PCL generated
element vertex 577
property float x
property float y
property float z
element camera 1
property float view_px
property float view_py
property float view_pz
property float x_axisx
property float x_axisy
property float x_axisz
property float y_axisx
property float y_axisy
property float y_axisz
property float z_axisx
property float z_axisy
property float z_axisz
property float focal
property float scalex
property float scaley
property float centerx
property float centery
property int viewportx
property int viewporty
property float k1
property float k2
end_header
0.069085866 -0.088666752 0.13161692
0.069740646 -0.088588044 0.13155422
0.070369706 -0.088588044 0.13155422
0.070972323 -0.088666752 0.13161692
0.071574479 -0.088745475 0.13167964
0.067777701 -0.089268491 0.13129804
0.068406053 -0.089268491 0.13129804
0.069060132 -0.089189947 0.13123517
0.069714688 -0.089111388 0.13117227
0.070343509 -0.089111388 0.13117227
0.070945889 -0.089189947 0.13123517
0.071547814 -0.089268491 0.13129804
0.072176166 -0.089268491 0.13129804
0.072750241 -0.089425579 0.1314238
0.067124315 -0.089791179 0.13091677
0.067752436 -0.089791179 0.13091677
0.068406053 -0.089712799 0.13085373
0.069060132 -0.089634418 0.13079068
0.069688715 -0.089634418 0.13079068
0.070317306 -0.089634418 0.13079068
0.070919462 -0.089712799 0.13085373
0.071547814 -0.089712799 0.13085373
0.072122365 -0.089869559 0.13097982
0.072723113 -0.089947909 0.13104284
0.073323391 -0.090026304 0.1311059
0.066446617 -0.090391725 0.13059902
0.067074262 -0.090391725 0.13059902
0.067727178 -0.090313539 0.13053584
0.068380557 -0.090235338 0.13047263
0.069008671 -0.090235338 0.13047263
0.069662757 -0.090157107 0.13040942
0.070264906 -0.090235338 0.13047263
0.070893019 -0.090235338 0.13047263
0.071521141 -0.090235338 0.13047263
0.072095469 -0.090391725 0.13059902
0.072695971 -0.090469956 0.13066225
0.073296025 -0.090548158 0.13072546
0.073895596 -0.090626389 0.13078867
0.066421822 -0.090913609 0.1302186
0.067074262 -0.090835541 0.13015521
0.067701921 -0.090835541 0.13015521
0.068355061 -0.090757519 0.13009186
0.068982944 -0.090757519 0.13009186
0.069636784 -0.090679482 0.13002849
0.070264906 -0.090679482 0.13002849
0.070866592 -0.090757519 0.13009186
0.071494475 -0.090757519 0.13009186
0.072068557 -0.090913609 0.1302186
0.072695971 -0.090913609 0.1302186
0.073296025 -0.090991646 0.13028197
0.073867999 -0.091147751 0.13040872
0.074494705 -0.091147751 0.13040872
0.065769851 -0.091435134 0.12983848
0.066421822 -0.091357261 0.12977494
0.067049235 -0.091357261 0.12977494
0.067676648 -0.091357261 0.12977494
0.068329573 -0.091279358 0.12971139
0.068957217 -0.091279358 0.12971139
0.069610827 -0.091201499 0.12964788
0.070238717 -0.091201499 0.12964788
0.070866592 -0.091201499 0.12964788
0.071467817 -0.091279358 0.12971139
0.072068557 -0.091357261 0.12977494
0.072641701 -0.091513023 0.12990203
0.073268652 -0.091513023 0.12990203
0.073867999 -0.091590896 0.12996557
0.074466862 -0.091668785 0.13002911
0.065745287 -0.091956347 0.12945871
0.066397026 -0.091878608 0.12939501
0.067049235 -0.091800898 0.12933129
0.067651391 -0.091878608 0.12939501
0.068304069 -0.091800898 0.12933129
0.068931475 -0.091800898 0.12933129
0.069584869 -0.091723174 0.12926759
0.070212521 -0.091723174 0.12926759
0.070840165 -0.091723174 0.12926759
0.071467817 -0.091723174 0.12926759
0.072068557 -0.091800898 0.12933129
0.072641701 -0.091956347 0.12945871
0.073241286 -0.092034042 0.12952241
0.073840387 -0.092111781 0.12958613
0.074466862 -0.092111781 0.12958613
0.075065278 -0.092189491 0.12964983
0.066397026 -0.092322096 0.12895152
0.067024209 -0.092322096 0.12895152
0.067651391 -0.092322096 0.12895152
0.068304069 -0.092244551 0.12888765
0.068957217 -0.09216699 0.12882377
0.069584869 -0.09216699 0.12882377
0.070238717 -0.092089459 0.12875992
0.070840165 -0.09216699 0.12882377
0.071441144 -0.092244551 0.12888765
0.072041661 -0.092322096 0.12895152
0.072641701 -0.092399657 0.1290154
0.073268652 -0.092399657 0.1290154
0.073840387 -0.092554763 0.12914315
0.074466862 -0.092554763 0.12914315
0.075065278 -0.092632309 0.12920702
0.066397026 -0.092765585 0.12850803
0.067049235 -0.092688203 0.128444
0.067676648 -0.092688203 0.128444
0.068304069 -0.092688203 0.128444
0.068957217 -0.092610806 0.12837996
0.069610827 -0.092533439 0.12831593
0.070264906 -0.092456073 0.1282519
0.070893019 -0.092456073 0.1282519
0.071494475 -0.092533439 0.12831593
0.072068557 -0.092688203 0.128444
0.072695971 -0.092688203 0.128444
0.073268652 -0.092842981 0.12857208
0.073867999 -0.092920363 0.12863611
0.074466862 -0.09299776 0.12870017
0.067024209 -0.093209058 0.12806454
0.067727178 -0.092977419 0.12787196
0.068380557 -0.092900217 0.12780775
0.069034405 -0.092822984 0.12774354
0.069662757 -0.092822984 0.12774354
0.070317306 -0.092745766 0.12767935
0.070919462 -0.092822984 0.12774354
0.071547814 -0.092822984 0.12774354
0.072122365 -0.092977419 0.12787196
0.072723113 -0.093054622 0.12793614
0.073296025 -0.093209058 0.12806454
0.073895596 -0.093286291 0.12812877
0.074466862 -0.093440741 0.12825717
0.067752436 -0.093344361 0.12736361
0.068406053 -0.093267292 0.12729923
0.069060132 -0.093190253 0.12723486
0.069662757 -0.093267292 0.12729923
0.070291109 -0.093267292 0.12729923
0.070945889 -0.093190253 0.12723486
0.071547814 -0.093267292 0.12729923
0.072149262 -0.093344361 0.12736361
0.072723113 -0.093498439 0.12749232
0.073323391 -0.093575507 0.1275567
0.073895596 -0.093729615 0.12768544
0.06790401 -0.09332718 0.12653224
0.068559036 -0.093250275 0.12646769
0.069291703 -0.092942744 0.12620957
0.069896437 -0.09301962 0.12627411
0.070553094 -0.092942744 0.12620957
0.071157351 -0.09301962 0.12627411
0.071734481 -0.0931734 0.12640318
0.072310671 -0.09332718 0.12653224
0.072831646 -0.093634725 0.12679039
0.073378131 -0.093865395 0.126984
0.073950805 -0.094019145 0.12711304
0.068763003 -0.093081817 0.12550482
0.06942036 -0.093005091 0.12544011
0.070104152 -0.092851654 0.12531072
0.070736483 -0.092851654 0.12531072
0.071368814 -0.092851654 0.12531072
0.071921147 -0.093081817 0.12550482
0.072472081 -0.093311965 0.12569889
0.072940193 -0.093772322 0.1260871
0.073514976 -0.093925759 0.1262165
0.069221929 -0.092150435 0.12389061
0.069883503 -0.092073873 0.12382573
0.070467658 -0.092226982 0.12395546
0.071050875 -0.092380106 0.12408519
0.071659572 -0.092456669 0.12415007
0.072161153 -0.09283945 0.12447439
0.072660394 -0.093222216 0.12479872
0.070706874 -0.090989307 0.12038481
0.072020225 -0.090913266 0.12031946
0.072690465 -0.090837181 0.12025408
0.069101505 -0.090457782 0.11907789
0.069672339 -0.090685472 0.11927447
0.070318259 -0.090685472 0.11927447
0.070938446 -0.090761334 0.11933997
0.071506232 -0.090989038 0.11953658
0.072151214 -0.090989038 0.11953658
0.072875492 -0.090761334 0.11933997
0.073521182 -0.090761334 0.11933997
0.068752415 -0.090006262 0.11783232
0.069276705 -0.090384901 0.1181608
0.069874443 -0.090536371 0.11829217
0.070445739 -0.090763554 0.11848927
0.071067095 -0.090839282 0.11855495
0.071713954 -0.090839282 0.11855495
0.072334602 -0.090915009 0.11862066
0.072981216 -0.090915009 0.11862066
0.07365451 -0.090839282 0.11855495
0.07435517 -0.090687811 0.11842357
0.068520486 -0.089180931 0.11625353
0.069074728 -0.089483172 0.11651693
0.069451898 -0.090314358 0.1172414
0.070000745 -0.090616614 0.11750482
0.070649713 -0.090616614 0.11750482
0.071272932 -0.090692177 0.1175707
0.071895704 -0.090767741 0.11763655
0.072518006 -0.09084329 0.11770241
0.073166259 -0.09084329 0.11770241
0.073867843 -0.090692177 0.1175707
0.068643287 -0.089265957 0.11546135
0.069149107 -0.089718357 0.1158575
0.069727205 -0.089944541 0.11605556
0.070202842 -0.090472341 0.11651775
0.070802689 -0.090623111 0.11664979
0.071427315 -0.09069851 0.11671583
0.072077453 -0.09069851 0.11671583
0.072648995 -0.090924695 0.11691388
0.073271982 -0.09100011 0.11697993
0.073947854 -0.090924695 0.11691388
0.068766087 -0.089352667 0.11466755
0.069223486 -0.089954525 0.11519708
0.069802284 -0.090180218 0.11539564
0.070379682 -0.090405911 0.11559419
0.070981167 -0.090556368 0.11572659
0.071555965 -0.090782076 0.11592516
0.072155342 -0.090932548 0.11605754
0.072779991 -0.091007754 0.11612374
0.073404156 -0.09108299 0.11618991
0.074054524 -0.09108299 0.11618991
0.074704893 -0.09108299 0.11618991
0.06832926 -0.089140773 0.11360665
0.069372252 -0.089966491 0.11433658
0.069952451 -0.090191677 0.11453563
0.070531249 -0.090416893 0.11473471
0.071108639 -0.090642095 0.11493376
0.071684629 -0.090867266 0.11513284
0.072311133 -0.090942353 0.11519919
0.072937183 -0.09101741 0.11526555
0.073509879 -0.091242626 0.11546463
0.074161187 -0.091242626 0.11546463
0.074812494 -0.091242626 0.11546463
0.067791849 -0.089231461 0.11280887
0.068402231 -0.089381263 0.11294192
0.069011673 -0.089531049 0.11307496
0.069521002 -0.089980468 0.1134741
0.07010261 -0.090205148 0.11367366
0.070657551 -0.090504766 0.11393975
0.071261622 -0.090654537 0.11407277
0.071839005 -0.090879261 0.11427234
0.072414994 -0.091103956 0.1144719
0.073015779 -0.091253743 0.11460495
0.073642053 -0.091328636 0.11467147
0.07429453 -0.091328636 0.11467147
0.074920096 -0.091403559 0.11473799
0.067371383 -0.088950127 0.11167599
0.067888215 -0.089398518 0.1120761
0.068499535 -0.089547992 0.11220948
0.069085352 -0.08977221 0.11240956
0.06964498 -0.090071127 0.11267629
0.07022775 -0.090295345 0.11287637
0.070809126 -0.090519547 0.11307642
0.07141459 -0.090669006 0.1132098
0.071941927 -0.091042683 0.11354323
0.072544813 -0.091192141 0.11367661
0.073146768 -0.091341615 0.11380999
0.073747776 -0.091491088 0.11394337
0.074401192 -0.091491088 0.11394337
0.068008669 -0.089492351 0.11127518
0.068572506 -0.089790627 0.11154261
0.069183588 -0.089939758 0.11167631
0.069744147 -0.09023805 0.11194372
0.070352897 -0.090387166 0.1120774
0.070935436 -0.090610877 0.11227798
0.071491078 -0.090909168 0.1125454
0.072096311 -0.091058284 0.11267908
0.072648674 -0.091356561 0.11294651
0.073277757 -0.091431141 0.11301337
0.073879942 -0.091580257 0.11314705
0.067514524 -0.08943902 0.11033857
0.068056852 -0.089811027 0.11067365
0.068669811 -0.089959845 0.11080769
0.069257274 -0.090183049 0.11100873
0.069868118 -0.090331852 0.11114277
0.07047803 -0.090480655 0.11127682
0.071036488 -0.090778291 0.11154489
0.07164406 -0.090927079 0.11167893
0.072199225 -0.0912247 0.11194701
0.072804458 -0.091373518 0.11208105
0.07340876 -0.091522306 0.11221506
0.074038535 -0.091596708 0.1122821
0.067562237 -0.089759201 0.10973553
0.068129122 -0.090056151 0.11000428
0.068718463 -0.090278864 0.11020581
0.069355503 -0.090353101 0.11027302
0.069942497 -0.090575814 0.11047457
0.070578143 -0.090650052 0.11054173
0.071188062 -0.090798512 0.11067611
0.071797036 -0.090947002 0.11081047
0.072353609 -0.091243953 0.11107922
0.072960243 -0.091392428 0.11121358
0.073592149 -0.091466665 0.11128075
0.074170701 -0.091689393 0.11148232
0.068249576 -0.090154126 0.10919921
0.068888739 -0.090228185 0.10926655
0.069527417 -0.090302259 0.1093339
0.070091262 -0.090598539 0.10960329
0.070728302 -0.090672627 0.10967065
0.071364895 -0.090746686 0.10973799
0.071899027 -0.091117054 0.11007473
0.072507992 -0.091265187 0.11020944
0.073116034 -0.091413334 0.11034414
0.073696941 -0.09163557 0.1105462
0.067824662 -0.089884207 0.10805489
0.068418212 -0.090105921 0.10825744
0.069034688 -0.090253726 0.10839248
0.06969934 -0.090253726 0.10839248
0.070264816 -0.09054935 0.10866253
0.070903495 -0.090623289 0.10873005
0.071516462 -0.090771094 0.10886508
0.072102986 -0.090992808 0.10906763
0.07271383 -0.091140628 0.10920265
0.07337568 -0.091140628 0.10920265
0.068586849 -0.09006004 0.10731336
0.069204964 -0.090207532 0.10744873
0.06984669 -0.090281278 0.10751642
0.07043837 -0.090502486 0.10771945
0.071078695 -0.090576246 0.10778713
0.071693301 -0.090723708 0.10792249
0.072281457 -0.090944946 0.10812555
0.072919682 -0.091018677 0.1081932
0.073557429 -0.091092438 0.1082609
0.074220911 -0.091092438 0.1082609
0.068087086 -0.090016484 0.10636698
0.068707302 -0.090163648 0.10650267
0.069350913 -0.09023723 0.10657053
0.069994047 -0.090310797 0.10663836
0.070587136 -0.090531513 0.10684189
0.071253896 -0.090531513 0.10684189
0.071895391 -0.090605095 0.10690975
0.072485432 -0.090825826 0.10711327
0.073151253 -0.090825826 0.10711327
0.073765151 -0.09097296 0.10724898
0.074404299 -0.091046557 0.10731682
0.067607664 -0.08990185 0.10535026
0.06820637 -0.090122074 0.10555428
0.068851843 -0.090195507 0.10562231
0.069496863 -0.09026891 0.1056903
0.070165962 -0.09026891 0.1056903
0.07076069 -0.090489119 0.10589434
0.071479142 -0.090342298 0.10575831
0.072072223 -0.090562537 0.10596237
0.072714895 -0.09063594 0.10603037
0.07335709 -0.090709358 0.1060984
0.07407672 -0.090562537 0.10596237
0.067702159 -0.090082839 0.10460359
0.06834951 -0.090156063 0.10467175
0.068996392 -0.090229318 0.10473993
0.069667138 -0.090229318 0.10473993
0.07031332 -0.090302557 0.10480811
0.070959032 -0.090375811 0.10487629
0.071629301 -0.090375811 0.10487629
0.072299577 -0.090375811 0.10487629
0.072918862 -0.090522304 0.10501266
0.073562935 -0.090595543 0.10508083
0.074232511 -0.090595543 0.10508083
0.067147888 -0.09019205 0.10378726
0.067820273 -0.09019205 0.10378726
0.068468794 -0.090265125 0.10385559
0.069140941 -0.090265125 0.10385559
0.069813095 -0.090265125 0.10385559
0.070509791 -0.09019205 0.10378726
0.071157381 -0.090265125 0.10385559
0.071829528 -0.090265125 0.10385559
0.072476409 -0.090338215 0.10392395
0.073148325 -0.090338215 0.10392395
0.073794506 -0.090411291 0.10399228
0.074414261 -0.090557456 0.10412897
0.067218058 -0.090448752 0.10310628
0.067891143 -0.090448752 0.10310628
0.068588078 -0.090375856 0.10303777
0.069261394 -0.090375856 0.10303777
0.069959037 -0.090302944 0.10296927
0.070632592 -0.090302944 0.10296927
0.071306139 -0.090302944 0.10296927
0.071979687 -0.090302944 0.10296927
0.072653241 -0.090302944 0.10296927
0.073326796 -0.090302944 0.10296927
0.074000344 -0.090302944 0.10296927
0.074647941 -0.090375856 0.10303777
0.067218058 -0.090924695 0.10263033
0.067962006 -0.090706453 0.10242432
0.068659648 -0.09063372 0.10235564
0.069333665 -0.09063372 0.10235564
0.070056342 -0.090488225 0.1022183
0.070755392 -0.090415463 0.10214961
0.071454905 -0.09034273 0.10208096
0.072129861 -0.09034273 0.10208096
0.072830088 -0.090269968 0.10201228
0.073505282 -0.090269968 0.10201228
0.074154727 -0.09034273 0.10208096
0.074855663 -0.090269968 0.10201228
0.066637583 -0.091110319 0.10187905
0.067358382 -0.090965167 0.10174136
0.068056501 -0.090892553 0.10167252
0.068778932 -0.090747401 0.10153484
0.069502302 -0.090602249 0.10139717
0.070226617 -0.090457097 0.10125948
0.070902742 -0.090457097 0.10125948
0.071603663 -0.090384498 0.10119063
0.072280027 -0.090384498 0.10119063
0.072931126 -0.090457097 0.10125948
0.073632762 -0.090384498 0.10119063
0.074309118 -0.090384498 0.10119063
0.074985482 -0.090384498 0.10119063
0.066753358 -0.091224834 0.10105741
0.067475319 -0.09108001 0.1009194
0.068198226 -0.0909352 0.10078138
0.068898216 -0.090862751 0.10071237
0.06964685 -0.090645522 0.10050537
0.07034824 -0.090573102 0.10043637
0.071025535 -0.090573102 0.10043637
0.071727633 -0.090500683 0.10036735
0.072405167 -0.090500683 0.10036735
0.073057435 -0.090573102 0.10043637
0.073734738 -0.090573102 0.10043637
0.074412033 -0.090573102 0.10043637
0.075089335 -0.090573102 0.10043637
0.066822819 -0.091485515 0.10037246
0.067545488 -0.091341019 0.10023411
0.068245478 -0.091268778 0.10016496
0.068993635 -0.091052026 0.099957451
0.069695033 -0.09097977 0.099888265
0.070445538 -0.090763032 0.099680766
0.071148336 -0.090690777 0.099611565
0.071851596 -0.090618521 0.099542424
0.072530299 -0.090618521 0.099542424
0.073183753 -0.090690777 0.099611565
0.073862225 -0.090690777 0.099611565
0.07454069 -0.090690777 0.099611565
0.075219162 -0.090690777 0.099611565
0.067615651 -0.091603041 0.099547848
0.06831634 -0.091530949 0.099478528
0.06908907 -0.091242626 0.099201173
0.069815487 -0.091098443 0.099062502
0.070542842 -0.090954274 0.098923817
0.071271136 -0.09081009 0.098785147
0.071950771 -0.09081009 0.098785147
0.07258036 -0.090954274 0.098923817
0.073259532 -0.090954274 0.098923817
0.073938712 -0.090954274 0.098923817
0.074617878 -0.090954274 0.098923817
0.07529705 -0.090954274 0.098923817
0.067732595 -0.091722205 0.098721594
0.068434462 -0.091650277 0.098652065
0.06916064 -0.091506436 0.098513067
0.06993594 -0.09121877 0.098235071
0.070664465 -0.091074929 0.098096073
0.071393929 -0.090931088 0.09795706
0.07202515 -0.091074929 0.098096073
0.072705492 -0.091074929 0.098096073
0.073360585 -0.091146842 0.098165557
0.074040696 -0.091146842 0.098165557
0.074746527 -0.091074929 0.098096073
0.066444889 -0.091986507 0.098032996
0.067146979 -0.091914758 0.097963333
0.067896314 -0.091699526 0.097754315
0.068599813 -0.091627762 0.097684637
0.069351494 -0.0914125 0.097475648
0.070080489 -0.091268986 0.097336307
0.070834741 -0.091053739 0.097127318
0.071516722 -0.091053739 0.097127318
0.072198704 -0.091053739 0.097127318
0.072830632 -0.091197252 0.097266644
0.073512152 -0.091197252 0.097266644
0.074168175 -0.091268986 0.097336307
0.074849449 -0.091268986 0.097336307
0.068906911 -0.091178015 0.096295893
0.069590062 -0.091178015 0.096295893
0.070297301 -0.09110643 0.096226066
0.071005017 -0.091034859 0.096156254
0.07166408 -0.09110643 0.096226066
0.072322682 -0.091178015 0.096295893
0.073005833 -0.091178015 0.096295893
0.073638462 -0.091321185 0.096435577
0.074295655 -0.091392785 0.096505418
0.068434246 -0.091018274 0.095182836
0.069072269 -0.091161117 0.095322847
0.069757059 -0.091161117 0.095322847
0.070465937 -0.091089696 0.095252857
0.071126647 -0.091161117 0.095322847
0.071811438 -0.091161117 0.095322847
0.072471432 -0.091232553 0.095392853
0.073155992 -0.091232553 0.095392853
0.073790029 -0.091375396 0.095532864
0.067270003 -0.090861514 0.094066799
0.067911066 -0.091004029 0.094207138
0.068597965 -0.091004029 0.094207138
0.069284871 -0.091004029 0.094207138
0.069947906 -0.091075301 0.094277307
0.070634574 -0.091075301 0.094277307
0.071321249 -0.091075301 0.094277307
0.071934238 -0.091289058 0.094487816
0.072620198 -0.091289058 0.094487816
0.073306166 -0.091289058 0.094487816
0.073966861 -0.091360331 0.094557986
0.067384608 -0.090992108 0.093229115
0.068049982 -0.091063201 0.093299463
0.068738289 -0.091063201 0.093299463
0.069426604 -0.091063201 0.093299463
0.070091054 -0.091134295 0.093369782
0.070779122 -0.091134295 0.093369782
0.071442872 -0.091205388 0.09344013
0.072057031 -0.091418669 0.093651101
0.072768964 -0.091347545 0.093580768
0.073431298 -0.091418669 0.093651101
0.074118435 -0.091418669 0.093651101
0.067567959 -0.090911582 0.092178285
0.068235219 -0.090982497 0.092248783
0.068925403 -0.090982497 0.092248783
0.069639206 -0.090911582 0.092178285
0.070305765 -0.090982497 0.092248783
0.070995942 -0.090982497 0.092248783
0.071637474 -0.091124356 0.092389777
0.072278067 -0.091266215 0.092530772
0.072967306 -0.091266215 0.092530772
0.073631525 -0.091337115 0.092601255
0.07432054 -0.091337115 0.092601255
0.067613803 -0.091258273 0.091548771
0.068350993 -0.091116741 0.091407448
0.069089122 -0.09097521 0.091266125
0.069780938 -0.09097521 0.091266125
0.070520476 -0.090833694 0.091124788
0.071164578 -0.09097521 0.091266125
0.071832076 -0.091045976 0.091336772
0.072449982 -0.091258273 0.091548771
0.073190451 -0.091116741 0.091407448
0.073831744 -0.091258273 0.091548771
0.067751326 -0.091323212 0.09063527
0.06846676 -0.09125264 0.090564445
0.069182672 -0.091182038 0.090493605
0.069946297 -0.090970248 0.090281144
0.070663616 -0.090899646 0.090210304
0.071333215 -0.090970248 0.090281144
0.071978025 -0.091111436 0.090422809
0.072646454 -0.091182038 0.090493605
0.073339209 -0.091182038 0.090493605
0.074031964 -0.091182038 0.090493605
0.068582535 -0.091390163 0.089719787
0.069346391 -0.091178879 0.089506805
0.070088036 -0.091038018 0.089364842
0.070759036 -0.091108456 0.089435846
0.071477763 -0.091038018 0.089364842
0.072148301 -0.091108456 0.089435846
0.07286749 -0.091038018 0.089364842
0.073537558 -0.091108456 0.089435846
0.074232183 -0.091108456 0.089435846
0.06879092 -0.091248333 0.088588864
0.06951011 -0.091178045 0.088517696
0.070277013 -0.090967268 0.088304237
0.070973746 -0.090967268 0.088304237
0.071670488 -0.090967268 0.088304237
0.072391555 -0.090896994 0.088233069
0.073113084 -0.090826735 0.088161916
0.073785499 -0.090896994 0.088233069
0.068976156 -0.091179535 0.087526262
0.069697209 -0.091109455 0.08745496
0.070513241 -0.09075895 0.087098315
0.071283884 -0.090548664 0.08688435
0.071983665 -0.090548664 0.08688435
0.072683454 -0.090548664 0.08688435
0.073407792 -0.090478584 0.086813033
0.074083015 -0.090548664 0.08688435
0.070164979 -0.090204298 0.085531667
0.070891201 -0.090134367 0.085460156
0.071522452 -0.090344176 0.085674644
0.072200485 -0.090414107 0.085746124
0.072878055 -0.090484008 0.085817605
0.073579714 -0.090484008 0.085817605
0.074231781 -0.090623885 0.085960582
0.07030531 -0.090282515 0.084604919
0.071103804 -0.090003446 0.08431828
0.071713306 -0.090282515 0.084604919
0.072369121 -0.090422049 0.084748223
0.073072657 -0.090422049 0.084748223
0.073727064 -0.090561569 0.084891543
0.07001809 -0.089527503 0.082814336
0.070679523 -0.089666709 0.082957983
0.071387269 -0.089666709 0.082957983
0.072071165 -0.089736298 0.083029792
0.072682306 -0.090014696 0.083317086
0.073413208 -0.089945123 0.083245263
0.074120015 -0.089945123 0.083245263
0 0 0 1 0 0 0 1 0 0 0 1 0 0 0 0 0 577 1 0 0
