ply
format ascii 1.0
comment PCL generated
element vertex 554
property float x
property float y
property float z
element camera 1
property float view_px
property float view_py
property float view_pz
property float x_axisx
property float x_axisy
property float x_axisz
property float y_axisx
property float y_axisy
property float y_axisz
property float z_axisx
property float z_axisy
property float z_axisz
property float focal
property float scalex
property float scaley
property float centerx
property float centery
property int viewportx
property int viewporty
property float k1
property float k2
end_header
0.069111593 -0.088588044 0.13155422
0.069766618 -0.088509321 0.13149148
0.070369706 -0.088588044 0.13155422
0.070998751 -0.088588044 0.13155422
0.071627811 -0.088588044 0.13155422
0.067802958 -0.089189947 0.13123517
0.068457045 -0.089111388 0.13117227
0.069085866 -0.089111388 0.13117227
0.069740646 -0.089032859 0.1311094
0.070343509 -0.089111388 0.13117227
0.070945889 -0.089189947 0.13123517
0.071574479 -0.089189947 0.13123517
0.072203062 -0.089189947 0.13123517
0.072777376 -0.089347035 0.13136092
0.067149349 -0.089712799 0.13085373
0.067777701 -0.089712799 0.13085373
0.068431549 -0.089634418 0.13079068
0.069060132 -0.089634418 0.13079068
0.069714688 -0.089556038 0.13072763
0.070343509 -0.089556038 0.13072763
0.070972323 -0.089556038 0.13072763
0.071574479 -0.089634418 0.13079068
0.072149262 -0.089791179 0.13091677
0.072750241 -0.089869559 0.13097982
0.073378131 -0.089869559 0.13097982
0.066471405 -0.090313539 0.13053584
0.067124315 -0.090235338 0.13047263
0.067752436 -0.090235338 0.13047263
0.068406053 -0.090157107 0.13040942
0.069034405 -0.090157107 0.13040942
0.069662757 -0.090157107 0.13040942
0.070291109 -0.090157107 0.13040942
0.070945889 -0.090078905 0.13034621
0.071521141 -0.090235338 0.13047263
0.072149262 -0.090235338 0.13047263
0.072750241 -0.090313539 0.13053584
0.073323391 -0.090469956 0.13066225
0.073923208 -0.090548158 0.13072546
0.065818965 -0.090835541 0.13015521
0.066446617 -0.090835541 0.13015521
0.067099288 -0.090757519 0.13009186
0.067727178 -0.090757519 0.13009186
0.068380557 -0.090679482 0.13002849
0.069034405 -0.090601414 0.1299651
0.069662757 -0.090601414 0.1299651
0.070291109 -0.090601414 0.1299651
0.070893019 -0.090679482 0.13002849
0.071521141 -0.090679482 0.13002849
0.072122365 -0.090757519 0.13009186
0.072695971 -0.090913609 0.1302186
0.073323391 -0.090913609 0.1302186
0.073923208 -0.090991646 0.13028197
0.07452254 -0.091069698 0.13034534
0.065794408 -0.091357261 0.12977494
0.066421822 -0.091357261 0.12977494
0.067074262 -0.091279358 0.12971139
0.067701921 -0.091279358 0.12971139
0.068329573 -0.091279358 0.12971139
0.068982944 -0.091201499 0.12964788
0.069610827 -0.091201499 0.12964788
0.070238717 -0.091201499 0.12964788
0.070866592 -0.091201499 0.12964788
0.071494475 -0.091201499 0.12964788
0.072068557 -0.091357261 0.12977494
0.072668836 -0.091435134 0.12983848
0.073296025 -0.091435134 0.12983848
0.073923208 -0.091435134 0.12983848
0.074494705 -0.091590896 0.12996557
0.075121418 -0.091590896 0.12996557
0.065745287 -0.091956347 0.12945871
0.066397026 -0.091878608 0.12939501
0.067049235 -0.091800898 0.12933129
0.067676648 -0.091800898 0.12933129
0.068329573 -0.091723174 0.12926759
0.068957217 -0.091723174 0.12926759
0.069584869 -0.091723174 0.12926759
0.070212521 -0.091723174 0.12926759
0.070840165 -0.091723174 0.12926759
0.071467817 -0.091723174 0.12926759
0.072068557 -0.091800898 0.12933129
0.072668836 -0.091878608 0.12939501
0.073296025 -0.091878608 0.12939501
0.073895596 -0.091956347 0.12945871
0.074494705 -0.092034042 0.12952241
0.075093344 -0.092111781 0.12958613
0.065745287 -0.092399657 0.1290154
0.066397026 -0.092322096 0.12895152
0.067024209 -0.092322096 0.12895152
0.067676648 -0.092244551 0.12888765
0.068278573 -0.092322096 0.12895152
0.068957217 -0.09216699 0.12882377
0.069584869 -0.09216699 0.12882377
0.070212521 -0.09216699 0.12882377
0.070840165 -0.09216699 0.12882377
0.071467817 -0.09216699 0.12882377
0.072068557 -0.092244551 0.12888765
0.072668836 -0.092322096 0.12895152
0.073296025 -0.092322096 0.12895152
0.073895596 -0.092399657 0.1290154
0.074494705 -0.092477202 0.12907927
0.075121418 -0.092477202 0.12907927
0.066397026 -0.092765585 0.12850803
0.067024209 -0.092765585 0.12850803
0.067651391 -0.092765585 0.12850803
0.068329573 -0.092610806 0.12837996
0.068957217 -0.092610806 0.12837996
0.069610827 -0.092533439 0.12831593
0.070238717 -0.092533439 0.12831593
0.070866592 -0.092533439 0.12831593
0.071494475 -0.092533439 0.12831593
0.072095469 -0.092610806 0.12837996
0.072695971 -0.092688203 0.128444
0.073296025 -0.092765585 0.12850803
0.073895596 -0.092842981 0.12857208
0.07452254 -0.092842981 0.12857208
0.066372231 -0.093286291 0.12812877
0.067024209 -0.093209058 0.12806454
0.067651391 -0.093209058 0.12806454
0.068304069 -0.093131855 0.12800035
0.068931475 -0.093131855 0.12800035
0.069584869 -0.093054622 0.12793614
0.070212521 -0.093054622 0.12793614
0.070893019 -0.092900217 0.12780775
0.071521141 -0.092900217 0.12780775
0.072095469 -0.093054622 0.12793614
0.072695971 -0.093131855 0.12800035
0.073323391 -0.093131855 0.12800035
0.073950805 -0.093131855 0.12800035
0.07452254 -0.093286291 0.12812877
0.067024209 -0.093652546 0.12762107
0.067651391 -0.093652546 0.12762107
0.068278573 -0.093652546 0.12762107
0.068931475 -0.093575507 0.1275567
0.069584869 -0.093498439 0.12749232
0.070212521 -0.093498439 0.12749232
0.070893019 -0.093344361 0.12736361
0.071547814 -0.093267292 0.12729923
0.072149262 -0.093344361 0.12736361
0.072750241 -0.0934214 0.12742797
0.073323391 -0.093575507 0.1275567
0.073923208 -0.093652546 0.12762107
0.067777701 -0.093711615 0.12685493
0.068482541 -0.093480945 0.12666132
0.069188789 -0.093250275 0.12646769
0.069818549 -0.093250275 0.12646769
0.070474498 -0.0931734 0.12640318
0.071104489 -0.0931734 0.12640318
0.071734481 -0.0931734 0.12640318
0.072310671 -0.09332718 0.12653224
0.072913058 -0.093404055 0.12659676
0.07343287 -0.093711615 0.12685493
0.074033618 -0.093788505 0.12691946
0.067574814 -0.092851654 0.12531072
0.068813995 -0.09292838 0.1253754
0.069446087 -0.09292838 0.1253754
0.070078187 -0.09292838 0.1253754
0.070736483 -0.092851654 0.12531072
0.071289517 -0.093081817 0.12550482
0.071894489 -0.093158528 0.12556949
0.072498977 -0.093235269 0.12563421
0.073048733 -0.093465418 0.12582831
0.073597088 -0.093695566 0.1260224
0.070753261 -0.091384903 0.12324195
0.07136526 -0.091461435 0.12330681
0.072108939 -0.091155216 0.12304735
0.071038872 -0.090995863 0.12207535
0.071653441 -0.091072246 0.12214038
0.072293967 -0.091072246 0.12214038
0.07288117 -0.091225013 0.12227044
0.070578218 -0.090915382 0.12116589
0.071220621 -0.090915382 0.12116589
0.071863025 -0.090915382 0.12116589
0.072505429 -0.090915382 0.12116589
0.073147833 -0.090915382 0.12116589
0.070088796 -0.090913266 0.12031946
0.070732601 -0.090913266 0.12031946
0.071428344 -0.09076114 0.12018874
0.072046429 -0.090837181 0.12025408
0.072690465 -0.090837181 0.12025408
0.073361173 -0.09076114 0.12018874
0.069672339 -0.090685472 0.11927447
0.070292771 -0.090761334 0.11933997
0.070964172 -0.090685472 0.11927447
0.071558163 -0.09083724 0.11940552
0.072125018 -0.09106493 0.1196021
0.072769761 -0.09106493 0.1196021
0.07344117 -0.090989038 0.11953658
0.074086159 -0.090989038 0.11953658
0.069176592 -0.090687811 0.11842357
0.069823913 -0.090687811 0.11842357
0.070471242 -0.090687811 0.11842357
0.071092822 -0.090763554 0.11848927
0.071713954 -0.090839282 0.11855495
0.072308414 -0.090990737 0.11868635
0.072954789 -0.090990737 0.11868635
0.073601179 -0.090990737 0.11868635
0.074247569 -0.090990737 0.11868635
0.074921079 -0.090915009 0.11862066
0.069124311 -0.089332074 0.11638524
0.069401838 -0.090465471 0.11737311
0.06997548 -0.090692177 0.1175707
0.07062421 -0.090692177 0.1175707
0.071272932 -0.090692177 0.1175707
0.071869738 -0.09084329 0.11770241
0.072465606 -0.090994418 0.11783411
0.073113389 -0.090994418 0.11783411
0.07376118 -0.090994418 0.11783411
0.074408978 -0.090994418 0.11783411
0.075056762 -0.090994418 0.11783411
0.069248281 -0.089416757 0.1155934
0.069727205 -0.089944541 0.11605556
0.070177577 -0.090547711 0.11658378
0.070777193 -0.09069851 0.11671583
0.071427315 -0.09069851 0.11671583
0.071999565 -0.090924695 0.11691388
0.072596595 -0.091075495 0.11704594
0.073245555 -0.091075495 0.11704594
0.073867843 -0.091150895 0.11711198
0.074516572 -0.091150895 0.11711198
0.075165294 -0.091150895 0.11711198
0.069297872 -0.089728817 0.11499849
0.069827311 -0.090104997 0.11532946
0.070379682 -0.090405911 0.11559419
0.070930168 -0.09070684 0.11585897
0.071530238 -0.090857297 0.11599134
0.072129384 -0.091007754 0.11612374
0.072727591 -0.091158226 0.11625612
0.073351286 -0.091233462 0.11632229
0.074001186 -0.091233462 0.11632229
0.074597284 -0.091383904 0.11645468
0.069446631 -0.089741305 0.1141375
0.069977477 -0.090116635 0.11446927
0.070531249 -0.090416893 0.11473471
0.071083143 -0.090717167 0.11500014
0.071658894 -0.090942353 0.11519919
0.072285175 -0.09101741 0.11526555
0.072832383 -0.091317669 0.11553097
0.07345701 -0.091392756 0.11559734
0.074081182 -0.091467813 0.11566368
0.07473179 -0.091467813 0.11566368
0.069036238 -0.089456141 0.11300842
0.069521002 -0.089980468 0.1134741
0.07010261 -0.090205148 0.11367366
0.070682824 -0.090429857 0.11387321
0.071236119 -0.090729445 0.1141393
0.071761817 -0.091103956 0.1144719
0.072389022 -0.091178864 0.11453845
0.072989583 -0.091328636 0.11467147
0.073589183 -0.091478452 0.11480451
0.07418786 -0.091628253 0.11493756
0.074839398 -0.091628253 0.11493756
0.068426557 -0.08977221 0.11240956
0.069060795 -0.089846939 0.11247624
0.06964498 -0.090071127 0.11267629
0.070202723 -0.090370074 0.11294305
0.070809126 -0.090519547 0.11307642
0.071389101 -0.090743735 0.11327648
0.071941927 -0.091042683 0.11354323
0.072544813 -0.091192141 0.11367661
0.073094368 -0.091491088 0.11394337
0.073694907 -0.091640562 0.11407673
0.074347854 -0.091640562 0.11407673
0.067912303 -0.089790627 0.11154261
0.068523854 -0.089939758 0.11167631
0.069085352 -0.09023805 0.11194372
0.069719359 -0.090312615 0.11201057
0.070352897 -0.090387166 0.1120774
0.070935436 -0.090610877 0.11227798
0.071516581 -0.090834588 0.11247854
0.072096311 -0.091058284 0.11267908
0.072648674 -0.091356561 0.11294651
0.073277757 -0.091431141 0.11301337
0.073879942 -0.091580257 0.11314705
0.074507862 -0.091654837 0.11321391
0.068008669 -0.089959845 0.11080769
0.06859684 -0.090183049 0.11100873
0.069208153 -0.090331852 0.11114277
0.069818534 -0.090480655 0.11127682
0.07047803 -0.090480655 0.11127682
0.071036488 -0.090778291 0.11154489
0.071669556 -0.090852663 0.1116119
0.072199225 -0.0912247 0.11194701
0.072830424 -0.091299102 0.11201403
0.073434956 -0.09144792 0.11214805
0.074064977 -0.091522306 0.11221506
0.068669811 -0.090427339 0.11034019
0.069330946 -0.090427339 0.11034019
0.069917709 -0.090650052 0.11054173
0.070578143 -0.090650052 0.11054173
0.07121332 -0.090724304 0.11060894
0.071797036 -0.090947002 0.11081047
0.072379336 -0.09116973 0.11101204
0.072986215 -0.091318175 0.11114639
0.073618345 -0.091392428 0.11121358
0.074223571 -0.091540903 0.11134796
0.068791434 -0.09052448 0.10953596
0.069453746 -0.09052448 0.10953596
0.070091262 -0.090598539 0.10960329
0.070728302 -0.090672627 0.10967065
0.071364895 -0.090746686 0.10973799
0.071975507 -0.090894833 0.1098727
0.072559454 -0.091117054 0.11007473
0.073167965 -0.091265187 0.11020944
0.068370037 -0.090253726 0.10839248
0.069010362 -0.09032765 0.10845999
0.069625661 -0.09047547 0.10859503
0.070264816 -0.09054935 0.10866253
0.070903495 -0.090623289 0.10873005
0.071516462 -0.090771094 0.10886508
0.072102986 -0.090992808 0.10906763
0.072739564 -0.091066688 0.10913514
0.07337568 -0.091140628 0.10920265
0.074011326 -0.091214508 0.10927017
0.069180638 -0.090281278 0.10751642
0.069822133 -0.090355009 0.10758407
0.07043837 -0.090502486 0.10771945
0.071053669 -0.090649977 0.10785481
0.071718559 -0.090649977 0.10785481
0.072357953 -0.090723708 0.10792249
0.073022604 -0.090723708 0.10792249
0.07360936 -0.090944946 0.10812555
0.074273311 -0.090944946 0.10812555
0.06873139 -0.090090081 0.10643482
0.069375239 -0.090163648 0.10650267
0.069994047 -0.090310797 0.10663836
0.070661515 -0.090310797 0.10663836
0.071228862 -0.090605095 0.10690975
0.071895391 -0.090605095 0.10690975
0.072536424 -0.090678662 0.10697758
0.07317698 -0.090752259 0.10704544
0.073817074 -0.090825826 0.10711327
0.074482903 -0.090825826 0.10711327
0.06834951 -0.08968161 0.1051462
0.068900026 -0.090048671 0.10548629
0.069545515 -0.090122074 0.10555428
0.070190519 -0.090195507 0.10562231
0.070810273 -0.090342298 0.10575831
0.071429089 -0.090489119 0.10589434
0.072072223 -0.090562537 0.10596237
0.072714895 -0.09063594 0.10603037
0.07335709 -0.090709358 0.1060984
0.074024789 -0.090709358 0.1060984
0.074666291 -0.090782762 0.10616638
0.068444937 -0.089863107 0.10439906
0.069044575 -0.090082839 0.10460359
0.069691464 -0.090156063 0.10467175
0.070337877 -0.090229318 0.10473993
0.070983827 -0.090302557 0.10480811
0.071629301 -0.090375811 0.10487629
0.072223797 -0.090595543 0.10508083
0.07286787 -0.090668797 0.10514902
0.073537201 -0.090668797 0.10514902
0.074180581 -0.090742037 0.10521717
0.068635792 -0.089753583 0.10337719
0.069261394 -0.089899749 0.10351388
0.06986174 -0.09011896 0.10371891
0.070509791 -0.09019205 0.10378726
0.071157381 -0.090265125 0.10385559
0.071804494 -0.090338215 0.10392395
0.072451152 -0.090411291 0.10399228
0.073071845 -0.090557456 0.10412897
0.073717318 -0.090630502 0.10419729
0.074388295 -0.090630502 0.10419729
0.068103746 -0.089792535 0.10248971
0.068731219 -0.089938357 0.10262671
0.069405943 -0.089938357 0.10262671
0.070007689 -0.090157107 0.10283226
0.070681706 -0.090157107 0.10283226
0.071330935 -0.090230018 0.10290076
0.071979687 -0.090302944 0.10296927
0.072627984 -0.090375856 0.10303777
0.073301308 -0.090375856 0.10303777
0.07394889 -0.090448752 0.10310628
0.068198226 -0.089979008 0.10173757
0.068874359 -0.089979008 0.10173757
0.069526397 -0.090051726 0.10180625
0.070202291 -0.090051726 0.10180625
0.070853621 -0.090124488 0.10187493
0.071479701 -0.090269968 0.10201228
0.072154887 -0.090269968 0.10201228
0.072804816 -0.09034273 0.10208096
0.073454283 -0.090415463 0.10214961
0.074129 -0.090415463 0.10214961
0.067662433 -0.090021595 0.10084644
0.06831634 -0.090094179 0.1009153
0.068993635 -0.090094179 0.1009153
0.06964685 -0.090166762 0.10098413
0.070275269 -0.09031193 0.10112181
0.071000978 -0.090166762 0.10098413
0.071603663 -0.090384498 0.10119063
0.072280027 -0.090384498 0.10119063
0.072931126 -0.090457097 0.10125948
0.073607258 -0.090457097 0.10125948
0.074283384 -0.090457097 0.10125948
0.06777937 -0.090138614 0.10002233
0.068410829 -0.090283453 0.10016035
0.06908907 -0.090283453 0.10016035
0.069767304 -0.090283453 0.10016035
0.070445538 -0.090283453 0.10016035
0.071123779 -0.090283453 0.10016035
0.071727633 -0.090500683 0.10036735
0.072405167 -0.090500683 0.10036735
0.073057435 -0.090573102 0.10043637
0.073709242 -0.090645522 0.10050537
0.074412033 -0.090573102 0.10043637
0.07506337 -0.090645522 0.10050537
0.067872927 -0.090329513 0.099265724
0.068505324 -0.090474024 0.099404067
0.06916064 -0.090546265 0.099473238
0.069839582 -0.090546265 0.099473238
0.070542842 -0.090474024 0.099404067
0.071197458 -0.090546265 0.099473238
0.071851596 -0.090618521 0.099542424
0.072530299 -0.090618521 0.099542424
0.073183753 -0.090690777 0.099611565
0.073836721 -0.090763032 0.099680766
0.07454069 -0.090690777 0.099611565
0.067919701 -0.090665936 0.098646462
0.068576187 -0.090738028 0.098715812
0.06925606 -0.090738028 0.098715812
0.06993594 -0.090738028 0.098715812
0.070591494 -0.09081009 0.098785147
0.071295694 -0.090738028 0.098715812
0.071950771 -0.09081009 0.098785147
0.07258036 -0.090954274 0.098923817
0.073310055 -0.09081009 0.098785147
0.073938712 -0.090954274 0.098923817
0.067989863 -0.090931088 0.09795706
0.068670683 -0.090931088 0.09795706
0.069351494 -0.090931088 0.09795706
0.070056401 -0.09085916 0.097887546
0.070713118 -0.090931088 0.09795706
0.071393929 -0.090931088 0.09795706
0.07202515 -0.091074929 0.098096073
0.072705492 -0.091074929 0.098096073
0.073385842 -0.091074929 0.098096073
0.074066184 -0.091074929 0.098096073
0.074746527 -0.091074929 0.098096073
0.068836041 -0.090910226 0.096987978
0.069494635 -0.090981975 0.097057641
0.070200935 -0.090910226 0.096987978
0.070859075 -0.090981975 0.097057641
0.071541287 -0.090981975 0.097057641
0.072198704 -0.091053739 0.097127318
0.072880685 -0.091053739 0.097127318
0.073562674 -0.091053739 0.097127318
0.074244663 -0.091053739 0.097127318
0.067610063 -0.090963259 0.096086398
0.068270527 -0.091034859 0.096156254
0.068954147 -0.091034859 0.096156254
0.069661632 -0.090963259 0.096086398
0.070345484 -0.090963259 0.096086398
0.071005017 -0.091034859 0.096156254
0.07166408 -0.09110643 0.096226066
0.072322682 -0.091178015 0.096295893
0.073030859 -0.09110643 0.096226066
0.073714249 -0.09110643 0.096226066
0.07437215 -0.091178015 0.096295893
0.068481021 -0.090875447 0.095042869
0.06916675 -0.090875447 0.095042869
0.069852479 -0.090875447 0.095042869
0.070538208 -0.090875447 0.095042869
0.071150973 -0.091089696 0.095252857
0.071811438 -0.091161117 0.095322847
0.072496235 -0.091161117 0.095322847
0.073181026 -0.091161117 0.095322847
0.073865823 -0.091161117 0.095322847
0.067934215 -0.090932786 0.094136983
0.068597965 -0.091004029 0.094207138
0.06930849 -0.090932786 0.094136983
0.069995627 -0.090932786 0.094136983
0.070658669 -0.091004029 0.094207138
0.071345575 -0.091004029 0.094207138
0.071958795 -0.091217816 0.094417647
0.072620198 -0.091289058 0.094487816
0.073331185 -0.091217816 0.094417647
0.073992133 -0.091289058 0.094487816
0.068049982 -0.091063201 0.093299463
0.068761684 -0.090992108 0.093229115
0.069450229 -0.090992108 0.093229115
0.070114903 -0.091063201 0.093299463
0.07080321 -0.091063201 0.093299463
0.071491517 -0.091063201 0.093299463
0.07213071 -0.091205388 0.09344013
0.07281854 -0.091205388 0.09344013
0.073506378 -0.091205388 0.09344013
0.074194223 -0.091205388 0.09344013
0.068235219 -0.090982497 0.092248783
0.068925403 -0.090982497 0.092248783
0.069662832 -0.090840638 0.092107788
0.070329614 -0.090911582 0.092178285
0.070995942 -0.090982497 0.092248783
0.071686126 -0.090982497 0.092248783
0.072327182 -0.091124356 0.092389777
0.073016897 -0.091124356 0.092389777
0.073681578 -0.091195285 0.092460245
0.074371062 -0.091195285 0.092460245
0.068443611 -0.090833694 0.091124788
0.069159284 -0.090762943 0.091054142
0.069851808 -0.090762943 0.091054142
0.070544325 -0.090762943 0.091054142
0.071212761 -0.090833694 0.091124788
0.071856402 -0.09097521 0.091266125
0.072548218 -0.09097521 0.091266125
0.073215246 -0.091045976 0.091336772
0.073906831 -0.091045976 0.091336772
0.068559378 -0.090970248 0.090281144
0.069276229 -0.090899646 0.090210304
0.069993541 -0.090829059 0.090139478
0.070663616 -0.090899646 0.090210304
0.07135731 -0.090899646 0.090210304
0.072026677 -0.090970248 0.090281144
0.072720133 -0.090970248 0.090281144
0.073413588 -0.090970248 0.090281144
0.07405699 -0.091111436 0.090422809
0.069416553 -0.090967596 0.089293852
0.070111655 -0.090967596 0.089293852
0.070806749 -0.090967596 0.089293852
0.071501851 -0.090967596 0.089293852
0.072172627 -0.091038018 0.089364842
0.072892047 -0.090967596 0.089293852
0.073587142 -0.090967596 0.089293852
0.074257217 -0.091038018 0.089364842
0.069673829 -0.090686202 0.088019595
0.070371501 -0.090686202 0.088019595
0.07102146 -0.090826735 0.088161916
0.071670488 -0.090967268 0.088304237
0.072391555 -0.090896994 0.088233069
0.073088527 -0.090896994 0.088233069
0.073760696 -0.090967268 0.088304237
0.070678599 -0.090268269 0.086599052
0.071307741 -0.090478584 0.086813033
0.071959578 -0.090618744 0.086955667
0.072659135 -0.090618744 0.086955667
0.073358677 -0.090618744 0.086955667
0.074008636 -0.09075895 0.087098315
0.07091482 -0.090064436 0.085388675
0.07159403 -0.090134367 0.085460156
0.072200485 -0.090414107 0.085746124
0.072902381 -0.090414107 0.085746124
0.073579714 -0.090484008 0.085817605
0.074281365 -0.090484008 0.085817605
0.070469029 -0.089794159 0.084103331
0.071198292 -0.089724377 0.084031671
0.07180874 -0.090003446 0.08431828
0.072417304 -0.090282515 0.084604919
0.073096983 -0.090352282 0.084676549
0.073776186 -0.090422049 0.084748223
0.070819855 -0.089249104 0.082527041
0.07143452 -0.089527503 0.082814336
0.072071165 -0.089736298 0.083029792
0.072682306 -0.090014696 0.083317086
0.073388882 -0.090014696 0.083317086
0.073997214 -0.090293109 0.08360438
0 0 0 1 0 0 0 1 0 0 0 1 0 0 0 0 0 554 1 0 0
