ply
format ascii 1.0
comment PCL generated
element vertex 546
property float x
property float y
property float z
element camera 1
property float view_px
property float view_py
property float view_pz
property float x_axisx
property float x_axisy
property float x_axisz
property float y_axisx
property float y_axisy
property float y_axisz
property float z_axisx
property float z_axisy
property float z_axisz
property float focal
property float scalex
property float scaley
property float centerx
property float centery
property int viewportx
property int viewporty
property float k1
property float k2
end_header
0.068304069 -0.089582652 0.13154955
0.068957217 -0.089504093 0.13148665
0.069610827 -0.089425579 0.1314238
0.070212521 -0.089504093 0.13148665
0.070866592 -0.089425579 0.1314238
0.071467817 -0.089504093 0.13148665
0.066999175 -0.090183064 0.13123199
0.067626126 -0.090183064 0.13123199
0.068278573 -0.090104669 0.13116893
0.068957217 -0.089947909 0.13104284
0.069584869 -0.089947909 0.13104284
0.070212521 -0.089947909 0.13104284
0.070840165 -0.089947909 0.13104284
0.071441144 -0.090026304 0.1311059
0.072068557 -0.090026304 0.1311059
0.072668836 -0.090104669 0.13116893
0.066347443 -0.09070459 0.13085188
0.066974156 -0.09070459 0.13085188
0.067626126 -0.090626389 0.13078867
0.068278573 -0.090548158 0.13072546
0.068931475 -0.090469956 0.13066225
0.069584869 -0.090391725 0.13059902
0.070186317 -0.090469956 0.13066225
0.070840165 -0.090391725 0.13059902
0.071467817 -0.090391725 0.13059902
0.072068557 -0.090469956 0.13066225
0.072641701 -0.090626389 0.13078867
0.073296025 -0.090548158 0.13072546
0.066347443 -0.091147751 0.13040872
0.066974156 -0.091147751 0.13040872
0.067626126 -0.091069698 0.13034534
0.068278573 -0.090991646 0.13028197
0.068905748 -0.090991646 0.13028197
0.069558896 -0.090913609 0.1302186
0.070186317 -0.090913609 0.1302186
0.070813723 -0.090913609 0.1302186
0.071441144 -0.090913609 0.1302186
0.072041661 -0.090991646 0.13028197
0.072668836 -0.090991646 0.13028197
0.073268652 -0.091069698 0.13034534
0.073895596 -0.091069698 0.13034534
0.065696165 -0.091668785 0.13002911
0.066297852 -0.091746658 0.13009265
0.066949122 -0.091668785 0.13002911
0.067575604 -0.091668785 0.13002911
0.068253078 -0.091513023 0.12990203
0.068905748 -0.091435134 0.12983848
0.069532938 -0.091435134 0.12983848
0.070133917 -0.091513023 0.12990203
0.070787296 -0.091435134 0.12983848
0.071441144 -0.091357261 0.12977494
0.072041661 -0.091435134 0.12983848
0.072641701 -0.091513023 0.12990203
0.073268652 -0.091513023 0.12990203
0.073867999 -0.091590896 0.12996557
0.074494705 -0.091590896 0.12996557
0.065671608 -0.092189491 0.12964983
0.066297852 -0.092189491 0.12964983
0.066949122 -0.092111781 0.12958613
0.067575604 -0.092111781 0.12958613
0.068227582 -0.092034042 0.12952241
0.068880014 -0.091956347 0.12945871
0.069532938 -0.091878608 0.12939501
0.070160121 -0.091878608 0.12939501
0.070813723 -0.091800898 0.12933129
0.071414478 -0.091878608 0.12939501
0.072041661 -0.091878608 0.12939501
0.072668836 -0.091878608 0.12939501
0.073268652 -0.091956347 0.12945871
0.073895596 -0.091956347 0.12945871
0.074494705 -0.092034042 0.12952241
0.066322647 -0.092554763 0.12914315
0.066974156 -0.092477202 0.12907927
0.067600869 -0.092477202 0.12907927
0.068253078 -0.092399657 0.1290154
0.068880014 -0.092399657 0.1290154
0.069532938 -0.092322096 0.12895152
0.070186317 -0.092244551 0.12888765
0.070813723 -0.092244551 0.12888765
0.071467817 -0.09216699 0.12882377
0.072068557 -0.092244551 0.12888765
0.072695971 -0.092244551 0.12888765
0.073268652 -0.092399657 0.1290154
0.073895596 -0.092399657 0.1290154
0.074494705 -0.092477202 0.12907927
0.066322647 -0.09299776 0.12870017
0.066974156 -0.092920363 0.12863611
0.067626126 -0.092842981 0.12857208
0.068253078 -0.092842981 0.12857208
0.068905748 -0.092765585 0.12850803
0.069558896 -0.092688203 0.128444
0.070186317 -0.092688203 0.128444
0.070813723 -0.092688203 0.128444
0.071467817 -0.092610806 0.12837996
0.072068557 -0.092688203 0.128444
0.072668836 -0.092765585 0.12850803
0.073296025 -0.092765585 0.12850803
0.073923208 -0.092765585 0.12850803
0.07452254 -0.092842981 0.12857208
0.066949122 -0.093440741 0.12825717
0.067626126 -0.093286291 0.12812877
0.068278573 -0.093209058 0.12806454
0.068931475 -0.093131855 0.12800035
0.069584869 -0.093054622 0.12793614
0.070212521 -0.093054622 0.12793614
0.070893019 -0.092900217 0.12780775
0.071547814 -0.092822984 0.12774354
0.072122365 -0.092977419 0.12787196
0.072723113 -0.093054622 0.12793614
0.073350765 -0.093054622 0.12793614
0.073923208 -0.093209058 0.12806454
0.066999175 -0.093729615 0.12768544
0.067626126 -0.093729615 0.12768544
0.068329573 -0.093498439 0.12749232
0.068982944 -0.0934214 0.12742797
0.069610827 -0.0934214 0.12742797
0.070264906 -0.093344361 0.12736361
0.070893019 -0.093344361 0.12736361
0.071547814 -0.093267292 0.12729923
0.072176166 -0.093267292 0.12729923
0.072777376 -0.093344361 0.12736361
0.073378131 -0.0934214 0.12742797
0.073978417 -0.093498439 0.12749232
0.067777701 -0.093711615 0.12685493
0.068482541 -0.093480945 0.12666132
0.069163054 -0.09332718 0.12653224
0.069818549 -0.093250275 0.12646769
0.070474498 -0.0931734 0.12640318
0.071104489 -0.0931734 0.12640318
0.071681149 -0.09332718 0.12653224
0.072337575 -0.093250275 0.12646769
0.072885916 -0.093480945 0.12666132
0.07343287 -0.093711615 0.12685493
0.068030313 -0.093388706 0.12576361
0.068686515 -0.093311965 0.12569889
0.069343165 -0.093235269 0.12563421
0.070052229 -0.093005091 0.12544011
0.070710286 -0.09292838 0.1253754
0.07126309 -0.093158528 0.12556949
0.07194782 -0.093005091 0.12544011
0.073679194 -0.093465418 0.12582831
0.069703385 -0.092609778 0.1242798
0.070311867 -0.092686325 0.12434466
0.070998475 -0.092533216 0.12421492
0.071580283 -0.092686325 0.12434466
0.072321162 -0.092380106 0.12408519
0.071897469 -0.092218101 0.12311584
0.071705841 -0.091372713 0.12155706
0.072241105 -0.091677606 0.12181784
0.072611161 -0.091065377 0.12045018
0.070216276 -0.090989038 0.11953658
0.070938446 -0.090761334 0.11933997
0.071558163 -0.09083724 0.11940552
0.072203614 -0.09083724 0.11940552
0.072796188 -0.090989038 0.11953658
0.07344117 -0.090989038 0.11953658
0.074086159 -0.090989038 0.11953658
0.069226645 -0.090536371 0.11829217
0.069798648 -0.090763554 0.11848927
0.070445739 -0.090763554 0.11848927
0.071067095 -0.090839282 0.11855495
0.071662024 -0.090990737 0.11868635
0.072334602 -0.090915009 0.11862066
0.072954789 -0.090990737 0.11868635
0.073601179 -0.090990737 0.11868635
0.074220672 -0.091066465 0.11875202
0.069476917 -0.09023881 0.11717553
0.070000745 -0.090616614 0.11750482
0.07062421 -0.090692177 0.1175707
0.071247205 -0.090767741 0.11763655
0.071869738 -0.09084329 0.11770241
0.072491802 -0.090918869 0.11776827
0.073139817 -0.090918869 0.11776827
0.07376118 -0.090994418 0.11783411
0.074408978 -0.090994418 0.11783411
0.069099523 -0.089869142 0.11598955
0.069677144 -0.090095326 0.11618762
0.070253365 -0.090321541 0.11638571
0.070828184 -0.090547711 0.11658378
0.071427315 -0.09069851 0.11671583
0.071999565 -0.090924695 0.11691388
0.072622791 -0.09100011 0.11697993
0.073245555 -0.091075495 0.11704594
0.073894516 -0.091075495 0.11704594
0.069173895 -0.090104997 0.11532946
0.06977725 -0.090255469 0.11546184
0.070329152 -0.090556368 0.11572659
0.070930168 -0.09070684 0.11585897
0.071530238 -0.090857297 0.11599134
0.072155342 -0.090932548 0.11605754
0.072779991 -0.091007754 0.11612374
0.073404156 -0.09108299 0.11618991
0.074054524 -0.09108299 0.11618991
0.069273077 -0.090266749 0.114602
0.069877364 -0.090416893 0.11473471
0.070455462 -0.090642095 0.11493376
0.071083143 -0.090717167 0.11500014
0.071658894 -0.090942353 0.11519919
0.072311133 -0.090942353 0.11519919
0.072884783 -0.091167539 0.11539826
0.073509879 -0.091242626 0.11546463
0.074161187 -0.091242626 0.11546463
0.074812494 -0.091242626 0.11546463
0.068790644 -0.090205148 0.11367366
0.069421835 -0.090280041 0.11374018
0.070002504 -0.090504766 0.11393975
0.070607036 -0.090654537 0.11407277
0.07121063 -0.090804338 0.11420581
0.071787544 -0.091029063 0.11440539
0.072414994 -0.091103956 0.1144719
0.073015779 -0.091253743 0.11460495
0.073642053 -0.091328636 0.11467147
0.07429453 -0.091328636 0.11467147
0.074920096 -0.091403559 0.11473799
0.068353578 -0.089996397 0.11260961
0.068913437 -0.090295345 0.11287637
0.069545805 -0.090370074 0.11294305
0.07015267 -0.090519547 0.11307642
0.070758604 -0.090669006 0.1132098
0.07133811 -0.090893209 0.11340986
0.071941927 -0.091042683 0.11354323
0.072518855 -0.09126687 0.11374329
0.073172972 -0.09126687 0.11374329
0.073747776 -0.091491088 0.11394337
0.074401192 -0.091491088 0.11394337
0.068426557 -0.09023805 0.11194372
0.069036238 -0.090387166 0.1120774
0.069669768 -0.090461731 0.11214426
0.07027781 -0.090610877 0.11227798
0.070859656 -0.090834588 0.11247854
0.071465589 -0.090983734 0.11261223
0.072070576 -0.091132864 0.11274594
0.072700605 -0.09120743 0.11281279
0.073277757 -0.091431141 0.11301337
0.073906377 -0.091505706 0.1130802
0.074561194 -0.091505706 0.1130802
0.067936398 -0.090183049 0.11100873
0.068523854 -0.090406269 0.11120979
0.069159031 -0.090480655 0.11127682
0.069768943 -0.090629473 0.11141086
0.070402943 -0.09070389 0.11147788
0.07101123 -0.090852663 0.1116119
0.071618564 -0.091001481 0.11174594
0.072173499 -0.091299102 0.11201403
0.072804458 -0.091373518 0.11208105
0.07340876 -0.091522306 0.11221506
0.074064977 -0.091522306 0.11221506
0.068032756 -0.090353101 0.11027302
0.068621159 -0.090575814 0.11047457
0.069257274 -0.090650052 0.11054173
0.069892913 -0.090724304 0.11060894
0.07052809 -0.090798512 0.11067611
0.071137533 -0.090947002 0.11081047
0.071720548 -0.09116973 0.11101204
0.072327882 -0.091318175 0.11114639
0.072960243 -0.091392428 0.11121358
0.073565945 -0.091540903 0.11134796
0.074223571 -0.091540903 0.11134796
0.068177305 -0.090376332 0.10940126
0.068791434 -0.09052448 0.10953596
0.069404624 -0.090672627 0.10967065
0.070041671 -0.090746686 0.10973799
0.070678249 -0.09082076 0.10980535
0.071263842 -0.091042981 0.11000741
0.071873523 -0.091191128 0.11014211
0.072482258 -0.091339275 0.11027679
0.073116034 -0.091413334 0.11034414
0.073723137 -0.091561481 0.11047885
0.068345942 -0.09032765 0.10845999
0.06896171 -0.09047547 0.10859503
0.069601104 -0.09054935 0.10866253
0.070215225 -0.090697169 0.10879757
0.070828415 -0.090844989 0.1089326
0.071415417 -0.091066688 0.10913514
0.072026506 -0.091214508 0.10927017
0.072662368 -0.091288432 0.10933769
0.073297784 -0.091362327 0.1094052
0.073906533 -0.091510147 0.10954024
0.068514571 -0.090281278 0.10751642
0.069156311 -0.090355009 0.10758407
0.069773018 -0.090502486 0.10771945
0.070388779 -0.090649977 0.10785481
0.071003608 -0.090797469 0.10799018
0.071617506 -0.090944946 0.10812555
0.072230466 -0.091092438 0.1082609
0.072868221 -0.091166154 0.10832858
0.073479541 -0.091313645 0.10846394
0.068039373 -0.090163648 0.10650267
0.068683207 -0.09023723 0.10657053
0.069326587 -0.090310797 0.10663836
0.069944933 -0.090457946 0.10677405
0.070562333 -0.090605095 0.10690975
0.071178801 -0.090752259 0.10704544
0.071819603 -0.090825826 0.10711327
0.072408937 -0.091046557 0.10731682
0.073074058 -0.091046557 0.10731682
0.073713221 -0.091120124 0.10738467
0.06820637 -0.090122074 0.10555428
0.068827756 -0.09026891 0.1056903
0.069472544 -0.090342298 0.10575831
0.070141405 -0.090342298 0.10575831
0.070735887 -0.090562537 0.10596237
0.071353994 -0.090709358 0.1060984
0.071996436 -0.090782762 0.10616638
0.072612911 -0.090929583 0.10630241
0.073254175 -0.091002986 0.10637042
0.073920935 -0.091002986 0.10637042
0.068325654 -0.090229318 0.10473993
0.068948209 -0.090375811 0.10487629
0.069618486 -0.090375811 0.10487629
0.070288762 -0.090375811 0.10487629
0.070909441 -0.090522304 0.10501266
0.071529187 -0.090668797 0.10514902
0.072173275 -0.090742037 0.10521717
0.072842374 -0.090742037 0.10521717
0.073485747 -0.090815261 0.10528535
0.074102685 -0.090961754 0.10542171
0.067843899 -0.09011896 0.10371891
0.068468794 -0.090265125 0.10385559
0.069116846 -0.090338215 0.10392395
0.069788761 -0.090338215 0.10392395
0.070460677 -0.090338215 0.10392395
0.071107797 -0.090411291 0.10399228
0.071729414 -0.090557456 0.10412897
0.07240063 -0.090557456 0.10412897
0.073046349 -0.090630502 0.10419729
0.073691584 -0.090703592 0.10426566
0.068635792 -0.090230018 0.10290076
0.069309577 -0.090230018 0.10290076
0.069959037 -0.090302944 0.10296927
0.070608035 -0.090375856 0.10303777
0.071306139 -0.090302944 0.10296927
0.071954668 -0.090375856 0.10303777
0.072602727 -0.090448752 0.10310628
0.073275812 -0.090448752 0.10310628
0.073897429 -0.090594575 0.10324329
0.068150982 -0.090124488 0.10187493
0.068778932 -0.090269968 0.10201228
0.069430031 -0.09034273 0.10208096
0.07012932 -0.090269968 0.10201228
0.070804507 -0.090269968 0.10201228
0.071479701 -0.090269968 0.10201228
0.072104834 -0.090415463 0.10214961
0.072804816 -0.09034273 0.10208096
0.073454283 -0.090415463 0.10214961
0.074103266 -0.090488225 0.1022183
0.068292722 -0.090166762 0.10098413
0.068969786 -0.090166762 0.10098413
0.069598667 -0.09031193 0.10112181
0.070250943 -0.090384498 0.10119063
0.070951864 -0.09031193 0.10112181
0.071628459 -0.09031193 0.10112181
0.072305053 -0.09031193 0.10112181
0.072956391 -0.090384498 0.10119063
0.073632762 -0.090384498 0.10119063
0.074283384 -0.090457097 0.10125948
0.068434462 -0.090211019 0.10009132
0.069112927 -0.090211019 0.10009132
0.069767304 -0.090283453 0.10016035
0.070396893 -0.090428278 0.10029835
0.071074657 -0.090428278 0.10029835
0.071752422 -0.090428278 0.10029835
0.072405167 -0.090500683 0.10036735
0.0730827 -0.090500683 0.10036735
0.073734738 -0.090573102 0.10043637
0.074412033 -0.090573102 0.10043637
0.075089335 -0.090573102 0.10043637
0.067239597 -0.090185016 0.099127382
0.067896314 -0.090257287 0.099196553
0.068552569 -0.090329513 0.099265724
0.069232211 -0.090329513 0.099265724
0.06986367 -0.090474024 0.099404067
0.070542842 -0.090474024 0.099404067
0.071197458 -0.090546265 0.099473238
0.071851596 -0.090618521 0.099542424
0.072530299 -0.090618521 0.099542424
0.07320901 -0.090618521 0.099542424
0.073862225 -0.090690777 0.099611565
0.07454069 -0.090690777 0.099611565
0.067309052 -0.090449676 0.098438472
0.068013258 -0.090377584 0.098369122
0.068623438 -0.09059386 0.098577142
0.069303781 -0.09059386 0.098577142
0.069960035 -0.090665936 0.098646462
0.070640147 -0.090665936 0.098646462
0.071320251 -0.090665936 0.098646462
0.071975566 -0.090738028 0.098715812
0.072655439 -0.090738028 0.098715812
0.07333532 -0.090738028 0.098715812
0.073989704 -0.09081009 0.098785147
0.074669339 -0.09081009 0.098785147
0.066742845 -0.090571493 0.097609565
0.067378514 -0.090715349 0.097748548
0.068106808 -0.090571493 0.097609565
0.068717927 -0.090787247 0.097818047
0.069399208 -0.090787247 0.097818047
0.070080489 -0.090787247 0.097818047
0.070737444 -0.09085916 0.097887546
0.071443051 -0.090787247 0.097818047
0.072099537 -0.09085916 0.097887546
0.072780579 -0.09085916 0.097887546
0.073461629 -0.09085916 0.097887546
0.074117184 -0.090931088 0.09795706
0.074797988 -0.090931088 0.09795706
0.066242345 -0.090479702 0.096569955
0.066903278 -0.090551466 0.096639648
0.06756375 -0.0906232 0.096709296
0.068176977 -0.090838462 0.0969183
0.068859667 -0.090838462 0.0969183
0.069542348 -0.090838462 0.0969183
0.070200935 -0.090910226 0.096987978
0.070883393 -0.090910226 0.096987978
0.071565844 -0.090910226 0.096987978
0.072248295 -0.090910226 0.096987978
0.072905719 -0.090981975 0.097057641
0.073613197 -0.090910226 0.096987978
0.074270159 -0.090981975 0.097057641
0.066355772 -0.090605319 0.095737234
0.066994965 -0.090748489 0.095876917
0.067679517 -0.090748489 0.095876917
0.068317302 -0.090891674 0.096016586
0.069001392 -0.090891674 0.096016586
0.069661632 -0.090963259 0.096086398
0.070345484 -0.090963259 0.096086398
0.071029343 -0.090963259 0.096086398
0.071688637 -0.091034859 0.096156254
0.072372258 -0.091034859 0.096156254
0.073055878 -0.091034859 0.096156254
0.073714249 -0.09110643 0.096226066
0.074423134 -0.091034859 0.096156254
0.0664692 -0.090732604 0.094902858
0.067155398 -0.090732604 0.094902858
0.067795292 -0.090875447 0.095042869
0.068481021 -0.090875447 0.095042869
0.06916675 -0.090875447 0.095042869
0.069804773 -0.091018274 0.095182836
0.070490032 -0.091018274 0.095182836
0.0711753 -0.091018274 0.095182836
0.071835995 -0.091089696 0.095252857
0.072496235 -0.091161117 0.095322847
0.073206052 -0.091089696 0.095252857
0.073891081 -0.091089696 0.095252857
0.07457611 -0.091089696 0.095252857
0.066537261 -0.091004029 0.094207138
0.067224167 -0.091004029 0.094207138
0.067911066 -0.091004029 0.094207138
0.068597965 -0.091004029 0.094207138
0.069284871 -0.091004029 0.094207138
0.06997177 -0.091004029 0.094207138
0.070658669 -0.091004029 0.094207138
0.071321249 -0.091075301 0.094277307
0.071958795 -0.091217816 0.094417647
0.072644986 -0.091217816 0.094417647
0.073381245 -0.091075301 0.094277307
0.074017391 -0.091217816 0.094417647
0.066650689 -0.091134295 0.093369782
0.067338765 -0.091134295 0.093369782
0.068026833 -0.091134295 0.093369782
0.068714909 -0.091134295 0.093369782
0.069426604 -0.091063201 0.093299463
0.070138767 -0.090992108 0.093229115
0.070827305 -0.090992108 0.093229115
0.071467198 -0.091134295 0.093369782
0.072155267 -0.091134295 0.093369782
0.072843343 -0.091134295 0.093369782
0.073506378 -0.091205388 0.09344013
0.074194223 -0.091205388 0.09344013
0.07488206 -0.091205388 0.09344013
0.066741429 -0.091337115 0.092601255
0.067453362 -0.091266215 0.092530772
0.068165764 -0.091195285 0.092460245
0.068855241 -0.091195285 0.092460245
0.069615588 -0.090982497 0.092248783
0.070305765 -0.090982497 0.092248783
0.071020029 -0.090911582 0.092178285
0.071710445 -0.090911582 0.092178285
0.072302625 -0.091195285 0.092460245
0.073016897 -0.091124356 0.092389777
0.073706605 -0.091124356 0.092389777
0.074371062 -0.091195285 0.092460245
0.066854857 -0.091470525 0.091760755
0.067590885 -0.091329008 0.091619417
0.068350993 -0.091116741 0.091407448
0.069065735 -0.091045976 0.091336772
0.069780938 -0.09097521 0.091266125
0.070544325 -0.090762943 0.091054142
0.071236849 -0.090762943 0.091054142
0.071905054 -0.090833694 0.091124788
0.072548218 -0.09097521 0.091266125
0.073240034 -0.09097521 0.091266125
0.073906831 -0.091045976 0.091336772
0.074573152 -0.091116741 0.091407448
0.067751326 -0.091323212 0.09063527
0.068513073 -0.091111436 0.090422809
0.069206059 -0.091111436 0.090422809
0.069946297 -0.090970248 0.090281144
0.070687473 -0.090829059 0.090139478
0.071381398 -0.090829059 0.090139478
0.07207533 -0.090829059 0.090139478
0.072744697 -0.090899646 0.090210304
0.073438391 -0.090899646 0.090210304
0.074107051 -0.090970248 0.090281144
0.068651997 -0.091178879 0.089506805
0.069369778 -0.091108456 0.089435846
0.070111655 -0.090967596 0.089293852
0.070854463 -0.090826735 0.089151859
0.071550034 -0.090826735 0.089151859
0.072196953 -0.090967596 0.089293852
0.072892047 -0.090967596 0.089293852
0.073587142 -0.090967596 0.089293852
0.074282244 -0.090967596 0.089293852
0.06879092 -0.091248333 0.088588864
0.069486715 -0.091248333 0.088588864
0.070300639 -0.090896994 0.088233069
0.07102146 -0.090826735 0.088161916
0.07171867 -0.090826735 0.088161916
0.072391555 -0.090896994 0.088233069
0.073088527 -0.090896994 0.088233069
0.073785499 -0.090896994 0.088233069
0.068976156 -0.091179535 0.087526262
0.069720604 -0.091039345 0.087383613
0.070489615 -0.090829059 0.087169647
0.071260035 -0.090618744 0.086955667
0.071911395 -0.09075895 0.087098315
0.072610483 -0.09075895 0.087098315
0.073284999 -0.090829059 0.087169647
0.073909461 -0.091039345 0.087383613
0.06997788 -0.090763748 0.086103573
0.070820332 -0.090344176 0.085674644
0.071498595 -0.090414107 0.085746124
0.072104119 -0.090693831 0.086032078
0.072805077 -0.090693831 0.086032078
0.073506027 -0.090693831 0.086032078
0.070398867 -0.090003446 0.08431828
0.071151048 -0.089863911 0.084174976
0.07176102 -0.09014298 0.0844616
0.072320938 -0.090561569 0.084891543
0.072999679 -0.090631336 0.084963188
0.073677942 -0.090701118 0.085034847
0.069401562 -0.089249104 0.082527041
0.070041239 -0.089457914 0.082742527
0.07077308 -0.089388296 0.082670689
0.07143452 -0.089527503 0.082814336
0.072071165 -0.089736298 0.083029792
0.072706394 -0.089945123 0.083245263
0.073461853 -0.089805916 0.08310163
0 0 0 1 0 0 0 1 0 0 0 1 0 0 0 0 0 546 1 0 0
