ply
format ascii 1.0
comment PCL generated
element vertex 537
property float x
property float y
property float z
element camera 1
property float view_px
property float view_py
property float view_pz
property float x_axisx
property float x_axisy
property float x_axisz
property float y_axisx
property float y_axisy
property float y_axisz
property float z_axisx
property float z_axisy
property float z_axisz
property float focal
property float scalex
property float scaley
property float centerx
property float centery
property int viewportx
property int viewporty
property float k1
property float k2
end_header
0.069085866 -0.088666752 0.13161692
0.069714688 -0.088666752 0.13161692
0.070317306 -0.088745475 0.13167964
0.070945889 -0.088745475 0.13167964
0.067777701 -0.089268491 0.13129804
0.068406053 -0.089268491 0.13129804
0.069034405 -0.089268491 0.13129804
0.069662757 -0.089268491 0.13129804
0.070291109 -0.089268491 0.13129804
0.070919462 -0.089268491 0.13129804
0.071521141 -0.089347035 0.13136092
0.072122365 -0.089425579 0.1314238
0.067124315 -0.089791179 0.13091677
0.067752436 -0.089791179 0.13091677
0.068406053 -0.089712799 0.13085373
0.069034405 -0.089712799 0.13085373
0.069662757 -0.089712799 0.13085373
0.070291109 -0.089712799 0.13085373
0.070919462 -0.089712799 0.13085373
0.071494475 -0.089869559 0.13097982
0.072095469 -0.089947909 0.13104284
0.072695971 -0.090026304 0.1311059
0.073323391 -0.090026304 0.1311059
0.066446617 -0.090391725 0.13059902
0.067099288 -0.090313539 0.13053584
0.067752436 -0.090235338 0.13047263
0.068380557 -0.090235338 0.13047263
0.069034405 -0.090157107 0.13040942
0.069662757 -0.090157107 0.13040942
0.070264906 -0.090235338 0.13047263
0.070893019 -0.090235338 0.13047263
0.071494475 -0.090313539 0.13053584
0.072095469 -0.090391725 0.13059902
0.072695971 -0.090469956 0.13066225
0.073296025 -0.090548158 0.13072546
0.073895596 -0.090626389 0.13078867
0.065794408 -0.090913609 0.1302186
0.066446617 -0.090835541 0.13015521
0.067074262 -0.090835541 0.13015521
0.067727178 -0.090757519 0.13009186
0.068380557 -0.090679482 0.13002849
0.069008671 -0.090679482 0.13002849
0.069636784 -0.090679482 0.13002849
0.070264906 -0.090679482 0.13002849
0.070866592 -0.090757519 0.13009186
0.071467817 -0.090835541 0.13015521
0.072068557 -0.090913609 0.1302186
0.072668836 -0.090991646 0.13028197
0.073296025 -0.090991646 0.13028197
0.073895596 -0.091069698 0.13034534
0.074494705 -0.091147751 0.13040872
0.065794408 -0.091357261 0.12977494
0.066421822 -0.091357261 0.12977494
0.067049235 -0.091357261 0.12977494
0.067701921 -0.091279358 0.12971139
0.068304069 -0.091357261 0.12977494
0.068982944 -0.091201499 0.12964788
0.069610827 -0.091201499 0.12964788
0.070238717 -0.091201499 0.12964788
0.070866592 -0.091201499 0.12964788
0.071441144 -0.091357261 0.12977494
0.072068557 -0.091357261 0.12977494
0.072641701 -0.091513023 0.12990203
0.073268652 -0.091513023 0.12990203
0.073895596 -0.091513023 0.12990203
0.074466862 -0.091668785 0.13002911
0.065769851 -0.091878608 0.12939501
0.066421822 -0.091800898 0.12933129
0.067074262 -0.091723174 0.12926759
0.067701921 -0.091723174 0.12926759
0.068329573 -0.091723174 0.12926759
0.068957217 -0.091723174 0.12926759
0.069610827 -0.091645479 0.1292039
0.070212521 -0.091723174 0.12926759
0.070840165 -0.091723174 0.12926759
0.071467817 -0.091723174 0.12926759
0.072068557 -0.091800898 0.12933129
0.072668836 -0.091878608 0.12939501
0.073268652 -0.091956347 0.12945871
0.073895596 -0.091956347 0.12945871
0.074494705 -0.092034042 0.12952241
0.065745287 -0.092399657 0.1290154
0.066397026 -0.092322096 0.12895152
0.067049235 -0.092244551 0.12888765
0.067676648 -0.092244551 0.12888765
0.068304069 -0.092244551 0.12888765
0.068957217 -0.09216699 0.12882377
0.069610827 -0.092089459 0.12875992
0.070238717 -0.092089459 0.12875992
0.070866592 -0.092089459 0.12875992
0.071467817 -0.09216699 0.12882377
0.072068557 -0.092244551 0.12888765
0.072668836 -0.092322096 0.12895152
0.073296025 -0.092322096 0.12895152
0.073895596 -0.092399657 0.1290154
0.074494705 -0.092477202 0.12907927
0.066397026 -0.092765585 0.12850803
0.067049235 -0.092688203 0.128444
0.067676648 -0.092688203 0.128444
0.068329573 -0.092610806 0.12837996
0.068957217 -0.092610806 0.12837996
0.069610827 -0.092533439 0.12831593
0.070264906 -0.092456073 0.1282519
0.070866592 -0.092533439 0.12831593
0.071494475 -0.092533439 0.12831593
0.072122365 -0.092533439 0.12831593
0.072723113 -0.092610806 0.12837996
0.073296025 -0.092765585 0.12850803
0.073923208 -0.092765585 0.12850803
0.07452254 -0.092842981 0.12857208
0.067024209 -0.093209058 0.12806454
0.067651391 -0.093209058 0.12806454
0.068329573 -0.093054622 0.12793614
0.068982944 -0.092977419 0.12787196
0.069662757 -0.092822984 0.12774354
0.070264906 -0.092900217 0.12780775
0.070919462 -0.092822984 0.12774354
0.071547814 -0.092822984 0.12774354
0.072095469 -0.093054622 0.12793614
0.072723113 -0.093054622 0.12793614
0.073323391 -0.093131855 0.12800035
0.073895596 -0.093286291 0.12812877
0.067676648 -0.093575507 0.1275567
0.068431549 -0.093190253 0.12723486
0.069085866 -0.093113184 0.12717049
0.069714688 -0.093113184 0.12717049
0.070343509 -0.093113184 0.12717049
0.070945889 -0.093190253 0.12723486
0.071601145 -0.093113184 0.12717049
0.072176166 -0.093267292 0.12729923
0.072777376 -0.093344361 0.12736361
0.073350765 -0.093498439 0.12749232
0.073950805 -0.093575507 0.1275567
0.067853481 -0.093480945 0.12666132
0.068635523 -0.09301962 0.12627411
0.069291703 -0.092942744 0.12620957
0.069948368 -0.09286584 0.12614504
0.070579298 -0.09286584 0.12614504
0.07121022 -0.09286584 0.12614504
0.071734481 -0.0931734 0.12640318
0.072310671 -0.09332718 0.12653224
0.072885916 -0.093480945 0.12666132
0.07343287 -0.093711615 0.12685493
0.074006014 -0.093865395 0.126984
0.069497548 -0.092774928 0.125246
0.070156083 -0.092698216 0.1251813
0.070762686 -0.092774928 0.125246
0.071368814 -0.092851654 0.12531072
0.072001152 -0.092851654 0.12531072
0.073075868 -0.093388706 0.12576361
0.073624454 -0.09361887 0.12595771
0.070545547 -0.091997325 0.12376086
0.071181864 -0.091997325 0.12376086
0.071765311 -0.092150435 0.12389061
0.071324483 -0.091065377 0.12045018
0.071994029 -0.090989307 0.12038481
0.072637595 -0.090989307 0.12038481
0.073281176 -0.090989307 0.12038481
0.070139788 -0.091216713 0.11973315
0.070912711 -0.09083724 0.11940552
0.071506232 -0.090989038 0.11953658
0.072151214 -0.090989038 0.11953658
0.072769761 -0.09106493 0.1196021
0.07344117 -0.090989038 0.11953658
0.07413996 -0.09083724 0.11940552
0.069748126 -0.090915009 0.11862066
0.070394747 -0.090915009 0.11862066
0.07104136 -0.090915009 0.11862066
0.071687981 -0.090915009 0.11862066
0.072334602 -0.090915009 0.11862066
0.072981216 -0.090915009 0.11862066
0.073627844 -0.090915009 0.11862066
0.069301724 -0.090767741 0.11763655
0.069950223 -0.090767741 0.11763655
0.07062421 -0.090692177 0.1175707
0.071272932 -0.090692177 0.1175707
0.071895704 -0.090767741 0.11763655
0.072544202 -0.090767741 0.11763655
0.073192686 -0.090767741 0.11763655
0.073841184 -0.090767741 0.11763655
0.069149107 -0.089718357 0.1158575
0.069702171 -0.090019941 0.11612161
0.07027863 -0.090246126 0.11631969
0.07085368 -0.090472341 0.11651775
0.07145305 -0.090623111 0.11664979
0.072077453 -0.09069851 0.11671583
0.072648995 -0.090924695 0.11691388
0.073298417 -0.090924695 0.11691388
0.073947854 -0.090924695 0.11691388
0.069273077 -0.089804068 0.11506468
0.069827311 -0.090104997 0.11532946
0.070404939 -0.090330675 0.11552802
0.071032159 -0.090405911 0.11559419
0.071581706 -0.09070684 0.11585897
0.072181314 -0.090857297 0.11599134
0.072779991 -0.091007754 0.11612374
0.073404156 -0.09108299 0.11618991
0.074054524 -0.09108299 0.11618991
0.069372252 -0.089966491 0.11433658
0.069952451 -0.090191677 0.11453563
0.070531249 -0.090416893 0.11473471
0.071108639 -0.090642095 0.11493376
0.071710356 -0.090792209 0.11506648
0.072311133 -0.090942353 0.11519919
0.072884783 -0.091167539 0.11539826
0.073509879 -0.091242626 0.11546463
0.074134521 -0.091317669 0.11553097
0.07478559 -0.091317669 0.11553097
0.068962559 -0.089680851 0.113208
0.069471426 -0.09013024 0.11360712
0.070077591 -0.090280041 0.11374018
0.070657551 -0.090504766 0.11393975
0.071261622 -0.090654537 0.11407277
0.071864739 -0.090804338 0.11420581
0.072414994 -0.091103956 0.1144719
0.073015779 -0.091253743 0.11460495
0.073642053 -0.091328636 0.11467147
0.074267857 -0.091403559 0.11473799
0.068426557 -0.08977221 0.11240956
0.069036238 -0.089921653 0.11254291
0.069620185 -0.090145871 0.11274299
0.070202723 -0.090370074 0.11294305
0.070809126 -0.090519547 0.11307642
0.071389101 -0.090743735 0.11327648
0.071967654 -0.090967953 0.11347656
0.072544813 -0.091192141 0.11367661
0.073172972 -0.09126687 0.11374329
0.073747776 -0.091491088 0.11394337
0.074401192 -0.091491088 0.11394337
0.067888215 -0.089865178 0.11160944
0.068499535 -0.090014324 0.11174315
0.069109917 -0.090163469 0.11187686
0.069694564 -0.090387166 0.1120774
0.070327863 -0.090461731 0.11214426
0.070935436 -0.090610877 0.11227798
0.071516581 -0.090834588 0.11247854
0.072122037 -0.090983734 0.11261223
0.072700605 -0.09120743 0.11281279
0.07330396 -0.091356561 0.11294651
0.073906377 -0.091505706 0.1130802
0.067960486 -0.090108648 0.11094174
0.068572506 -0.090257466 0.11107577
0.069208153 -0.090331852 0.11114277
0.069843322 -0.090406269 0.11120979
0.070427977 -0.090629473 0.11141086
0.071036488 -0.090778291 0.11154489
0.07164406 -0.090927079 0.11167893
0.072250687 -0.091075897 0.11181296
0.072830424 -0.091299102 0.11201403
0.073461153 -0.091373518 0.11208105
0.074064977 -0.091522306 0.11221506
0.06869413 -0.090353101 0.11027302
0.069330946 -0.090427339 0.11034019
0.069917709 -0.090650052 0.11054173
0.070578143 -0.090650052 0.11054173
0.071188062 -0.090798512 0.11067611
0.071746044 -0.091095477 0.11094485
0.072379336 -0.09116973 0.11101204
0.073012173 -0.091243953 0.11107922
0.073644549 -0.091318175 0.11114639
0.074250005 -0.091466665 0.11128075
0.068201393 -0.090302259 0.1093339
0.068864405 -0.090302259 0.1093339
0.069453746 -0.09052448 0.10953596
0.070091262 -0.090598539 0.10960329
0.070728302 -0.090672627 0.10967065
0.07133963 -0.09082076 0.10980535
0.071924515 -0.091042981 0.11000741
0.072533719 -0.091191128 0.11014211
0.073167965 -0.091265187 0.11020944
0.073801734 -0.091339275 0.11027679
0.068370037 -0.090253726 0.10839248
0.069010362 -0.09032765 0.10845999
0.069625661 -0.09047547 0.10859503
0.070264816 -0.09054935 0.10866253
0.070903495 -0.090623289 0.10873005
0.071516462 -0.090771094 0.10886508
0.072102986 -0.090992808 0.10906763
0.07271383 -0.091140628 0.10920265
0.073349714 -0.091214508 0.10927017
0.073985122 -0.091288432 0.10933769
0.068562753 -0.090133786 0.10738105
0.069229282 -0.090133786 0.10738105
0.069822133 -0.090355009 0.10758407
0.07043837 -0.090502486 0.10771945
0.071053669 -0.090649977 0.10785481
0.071668029 -0.090797469 0.10799018
0.072281457 -0.090944946 0.10812555
0.072919682 -0.091018677 0.1081932
0.073557429 -0.091092438 0.1082609
0.074194714 -0.091166154 0.10832858
0.068134807 -0.089869335 0.10623127
0.06873139 -0.090090081 0.10643482
0.069375239 -0.090163648 0.10650267
0.070018604 -0.09023723 0.10657053
0.070661515 -0.090310797 0.10663836
0.071228862 -0.090605095 0.10690975
0.071870133 -0.090678662 0.10697758
0.072485432 -0.090825826 0.10711327
0.073151253 -0.090825826 0.10711327
0.073739178 -0.091046557 0.10731682
0.06827794 -0.08990185 0.10535026
0.068875939 -0.090122074 0.10555428
0.069521189 -0.090195507 0.10562231
0.070165962 -0.09026891 0.1056903
0.070810273 -0.090342298 0.10575831
0.071429089 -0.090489119 0.10589434
0.072072223 -0.090562537 0.10596237
0.072714895 -0.09063594 0.10603037
0.073331363 -0.090782762 0.10616638
0.073946901 -0.090929583 0.10630241
0.068421081 -0.089936346 0.10446723
0.069020487 -0.090156063 0.10467175
0.069667138 -0.090229318 0.10473993
0.070337877 -0.090229318 0.10473993
0.070983827 -0.090302557 0.10480811
0.071579248 -0.090522304 0.10501266
0.072223797 -0.090595543 0.10508083
0.072893374 -0.090595543 0.10508083
0.073537201 -0.090668797 0.10514902
0.074180581 -0.090742037 0.10521717
0.067914762 -0.089899749 0.10351388
0.068516508 -0.09011896 0.10371891
0.069165029 -0.09019205 0.10378726
0.069813095 -0.090265125 0.10385559
0.070485234 -0.090265125 0.10385559
0.071132585 -0.090338215 0.10392395
0.071779475 -0.090411291 0.10399228
0.072451152 -0.090411291 0.10399228
0.073122837 -0.090411291 0.10399228
0.073743045 -0.090557456 0.10412897
0.067381769 -0.089938357 0.10262671
0.068032876 -0.090011299 0.10269523
0.068707362 -0.090011299 0.10269523
0.069309577 -0.090230018 0.10290076
0.069983363 -0.090230018 0.10290076
0.070632592 -0.090302944 0.10296927
0.071306139 -0.090302944 0.10296927
0.071954668 -0.090375856 0.10303777
0.072627984 -0.090375856 0.10303777
0.073301308 -0.090375856 0.10303777
0.073974617 -0.090375856 0.10303777
0.074647941 -0.090375856 0.10303777
0.068150982 -0.090124488 0.10187493
0.068778932 -0.090269968 0.10201228
0.069454126 -0.090269968 0.10201228
0.07012932 -0.090269968 0.10201228
0.070804507 -0.090269968 0.10201228
0.071479701 -0.090269968 0.10201228
0.072129861 -0.09034273 0.10208096
0.072804816 -0.09034273 0.10208096
0.073454283 -0.090415463 0.10214961
0.074129 -0.090415463 0.10214961
0.074803732 -0.090415463 0.10214961
0.067615651 -0.090166762 0.10098413
0.068245478 -0.09031193 0.10112181
0.068898216 -0.090384498 0.10119063
0.06957458 -0.090384498 0.10119063
0.070250943 -0.090384498 0.10119063
0.070927307 -0.090384498 0.10119063
0.071603663 -0.090384498 0.10119063
0.072280027 -0.090384498 0.10119063
0.072931126 -0.090457097 0.10125948
0.073607258 -0.090457097 0.10125948
0.074283384 -0.090457097 0.10125948
0.067054361 -0.090283453 0.10016035
0.067685813 -0.090428278 0.10029835
0.068410829 -0.090283453 0.10016035
0.0690175 -0.090500683 0.10036735
0.069695033 -0.090500683 0.10036735
0.070372567 -0.090500683 0.10036735
0.0710501 -0.090500683 0.10036735
0.071727633 -0.090500683 0.10036735
0.072405167 -0.090500683 0.10036735
0.073057435 -0.090573102 0.10043637
0.073734738 -0.090573102 0.10043637
0.074412033 -0.090573102 0.10043637
0.075089335 -0.090573102 0.10043637
0.067123823 -0.090546265 0.099473238
0.067802764 -0.090546265 0.099473238
0.068481706 -0.090546265 0.099473238
0.069136783 -0.090618521 0.099542424
0.069815487 -0.090618521 0.099542424
0.07049419 -0.090618521 0.099542424
0.071172893 -0.090618521 0.099542424
0.071851596 -0.090618521 0.099542424
0.072530299 -0.090618521 0.099542424
0.073183753 -0.090690777 0.099611565
0.073836721 -0.090763032 0.099680766
0.07454069 -0.090690777 0.099611565
0.075219162 -0.090690777 0.099611565
0.067193285 -0.09081009 0.098785147
0.067872927 -0.09081009 0.098785147
0.068552569 -0.09081009 0.098785147
0.069232211 -0.09081009 0.098785147
0.069911852 -0.09081009 0.098785147
0.070591494 -0.09081009 0.098785147
0.071271136 -0.09081009 0.098785147
0.071901187 -0.090954274 0.098923817
0.07258036 -0.090954274 0.098923817
0.073310055 -0.09081009 0.098785147
0.073913217 -0.091026351 0.098993152
0.074617878 -0.090954274 0.098923817
0.067239597 -0.091146842 0.098165557
0.067943089 -0.091074929 0.098096073
0.068623438 -0.091074929 0.098096073
0.069303781 -0.091074929 0.098096073
0.069984123 -0.091074929 0.098096073
0.070664465 -0.091074929 0.098096073
0.071393929 -0.090931088 0.09795706
0.072074741 -0.090931088 0.09795706
0.072705492 -0.091074929 0.098096073
0.073385842 -0.091074929 0.098096073
0.074066184 -0.091074929 0.098096073
0.074746527 -0.091074929 0.098096073
0.066628247 -0.0914125 0.097475648
0.067332216 -0.091340736 0.09740597
0.068013258 -0.091340736 0.09740597
0.068694308 -0.091340736 0.09740597
0.069423057 -0.091197252 0.097266644
0.070104577 -0.091197252 0.097266644
0.070786089 -0.091197252 0.097266644
0.071516722 -0.091053739 0.097127318
0.07214912 -0.091197252 0.097266644
0.072830632 -0.091197252 0.097266644
0.073486887 -0.091268986 0.097336307
0.074168175 -0.091268986 0.097336307
0.074849449 -0.091268986 0.097336307
0.066697001 -0.091679156 0.096784741
0.067424826 -0.091535971 0.096645087
0.068106808 -0.091535971 0.096645087
0.068812415 -0.09146437 0.096575245
0.069518492 -0.091392785 0.096505418
0.070200935 -0.091392785 0.096505418
0.070907719 -0.091321185 0.096435577
0.071639523 -0.091178015 0.096295893
0.07227309 -0.091321185 0.096435577
0.072955772 -0.091321185 0.096435577
0.073638462 -0.091321185 0.096435577
0.074321151 -0.091321185 0.096435577
0.06756375 -0.091589659 0.095742837
0.068247139 -0.091589659 0.095742837
0.068954147 -0.091518253 0.095672861
0.069661632 -0.091446817 0.09560284
0.070369571 -0.091375396 0.095532864
0.071102321 -0.091232553 0.095392853
0.071737759 -0.091375396 0.095532864
0.072421849 -0.091375396 0.095532864
0.073155992 -0.091232553 0.095392853
0.073840559 -0.091232553 0.095392853
0.074525118 -0.091232553 0.095392853
0.06772583 -0.091574088 0.094768465
0.068387471 -0.091645345 0.094838619
0.069095887 -0.091574088 0.094768465
0.069804773 -0.091502815 0.094698295
0.070538208 -0.091360331 0.094557986
0.071223944 -0.091360331 0.094557986
0.071909674 -0.091360331 0.094557986
0.072595403 -0.091360331 0.094557986
0.073281132 -0.091360331 0.094557986
0.073916346 -0.091502815 0.094698295
0.074652597 -0.091360331 0.094557986
0.068527795 -0.091703027 0.093932435
0.069261245 -0.091560841 0.093791768
0.069947906 -0.091560841 0.093791768
0.070682757 -0.091418669 0.093651101
0.071369894 -0.091418669 0.093651101
0.072057031 -0.091418669 0.093651101
0.072744168 -0.091418669 0.093651101
0.073431298 -0.091418669 0.093651101
0.074093178 -0.091489732 0.093721434
0.068738289 -0.091549918 0.092812747
0.069497474 -0.091337115 0.092601255
0.070210338 -0.091266215 0.092530772
0.070899576 -0.091266215 0.092530772
0.071588822 -0.091266215 0.092530772
0.07225351 -0.091337115 0.092601255
0.072967306 -0.091266215 0.092530772
0.073631525 -0.091337115 0.092601255
0.068258375 -0.091399774 0.091690093
0.068972178 -0.091329008 0.091619417
0.069733694 -0.091116741 0.091407448
0.070425048 -0.091116741 0.091407448
0.071116395 -0.091116741 0.091407448
0.07180775 -0.091116741 0.091407448
0.072449982 -0.091258273 0.091548771
0.07314086 -0.091258273 0.091548771
0.073806718 -0.091329008 0.091619417
0.074497372 -0.091329008 0.091619417
0.069182672 -0.091182038 0.090493605
0.069946297 -0.090970248 0.090281144
0.070639752 -0.090970248 0.090281144
0.071333215 -0.090970248 0.090281144
0.072026677 -0.090970248 0.090281144
0.072646454 -0.091182038 0.090493605
0.073364004 -0.091111436 0.090422809
0.074031964 -0.091182038 0.090493605
0.070111655 -0.090967596 0.089293852
0.070854463 -0.090826735 0.089151859
0.071477763 -0.091038018 0.089364842
0.072172627 -0.091038018 0.089364842
0.07286749 -0.091038018 0.089364842
0.073537558 -0.091108456 0.089435846
0.074232183 -0.091108456 0.089435846
0.070395119 -0.090615958 0.087948456
0.071069174 -0.090686202 0.088019595
0.07171867 -0.090826735 0.088161916
0.072391555 -0.090896994 0.088233069
0.073113084 -0.090826735 0.088161916
0.073760696 -0.090967268 0.088304237
0.070678599 -0.090268269 0.086599052
0.071379319 -0.090268269 0.086599052
0.072007753 -0.090478584 0.086813033
0.072659135 -0.090618744 0.086955667
0.073358677 -0.090618744 0.086955667
0.074008636 -0.09075895 0.087098315
0.07091482 -0.090064436 0.085388675
0.07159403 -0.090134367 0.085460156
0.072224572 -0.090344176 0.085674644
0.072829403 -0.090623885 0.085960582
0.073530592 -0.090623885 0.085960582
0.071174666 -0.089794159 0.084103331
0.071784876 -0.090073213 0.084389955
0.072465487 -0.09014298 0.0844616
0.070133857 -0.089179501 0.082455248
0.070843242 -0.089179501 0.082455248
0.071458139 -0.089457914 0.082742527
0.072238155 -0.089249104 0.082527041
0.07287503 -0.089457914 0.082742527
0.073559158 -0.089527503 0.082814336
0.069722436 -0.088778466 0.081017792
0.070388556 -0.088917315 0.081161782
0.071030349 -0.089125633 0.081377745
0.071717985 -0.089195073 0.081449732
0.072429009 -0.089195073 0.081449732
0.073164128 -0.089125633 0.081377745
0.073851056 -0.089195073 0.081449732
0 0 0 1 0 0 0 1 0 0 0 1 0 0 0 0 0 537 1 0 0
