ply
format ascii 1.0
comment PCL generated
element vertex 542
property float x
property float y
property float z
element camera 1
property float view_px
property float view_py
property float view_pz
property float x_axisx
property float x_axisy
property float x_axisz
property float y_axisx
property float y_axisy
property float y_axisz
property float z_axisx
property float z_axisy
property float z_axisz
property float focal
property float scalex
property float scaley
property float centerx
property float centery
property int viewportx
property int viewporty
property float k1
property float k2
end_header
0.069163054 -0.088430643 0.13142878
0.069818549 -0.088351905 0.13136606
0.070422105 -0.088430643 0.13142878
0.07105162 -0.088430643 0.13142878
0.071654484 -0.088509321 0.13149148
0.067828223 -0.089111388 0.13117227
0.068457045 -0.089111388 0.13117227
0.069111593 -0.089032859 0.1311094
0.069766618 -0.0889543 0.13104652
0.070369706 -0.089032859 0.1311094
0.070998751 -0.089032859 0.1311094
0.071601145 -0.089111388 0.13117227
0.072176166 -0.089268491 0.13129804
0.072777376 -0.089347035 0.13136092
0.067149349 -0.089712799 0.13085373
0.067802958 -0.089634418 0.13079068
0.068457045 -0.089556038 0.13072763
0.069111593 -0.089477658 0.13066459
0.069740646 -0.089477658 0.13066459
0.070369706 -0.089477658 0.13066459
0.070998751 -0.089477658 0.13066459
0.071574479 -0.089634418 0.13079068
0.072176166 -0.089712799 0.13085373
0.072723113 -0.089947909 0.13104284
0.073350765 -0.089947909 0.13104284
0.066496201 -0.090235338 0.13047263
0.067124315 -0.090235338 0.13047263
0.067777701 -0.090157107 0.13040942
0.068431549 -0.090078905 0.13034621
0.069085866 -0.090000674 0.130283
0.069714688 -0.090000674 0.130283
0.070343509 -0.090000674 0.130283
0.070945889 -0.090078905 0.13034621
0.071574479 -0.090078905 0.13034621
0.072122365 -0.090313539 0.13053584
0.072723113 -0.090391725 0.13059902
0.073323391 -0.090469956 0.13066225
0.073923208 -0.090548158 0.13072546
0.066446617 -0.090835541 0.13015521
0.067099288 -0.090757519 0.13009186
0.067752436 -0.090679482 0.13002849
0.068380557 -0.090679482 0.13002849
0.069034405 -0.090601414 0.1299651
0.069662757 -0.090601414 0.1299651
0.070264906 -0.090679482 0.13002849
0.070919462 -0.090601414 0.1299651
0.071521141 -0.090679482 0.13002849
0.072068557 -0.090913609 0.1302186
0.072695971 -0.090913609 0.1302186
0.073296025 -0.090991646 0.13028197
0.073895596 -0.091069698 0.13034534
0.074494705 -0.091147751 0.13040872
0.065769851 -0.091435134 0.12983848
0.066421822 -0.091357261 0.12977494
0.067074262 -0.091279358 0.12971139
0.067676648 -0.091357261 0.12977494
0.068304069 -0.091357261 0.12977494
0.068982944 -0.091201499 0.12964788
0.069610827 -0.091201499 0.12964788
0.070238717 -0.091201499 0.12964788
0.070866592 -0.091201499 0.12964788
0.071494475 -0.091201499 0.12964788
0.072068557 -0.091357261 0.12977494
0.072668836 -0.091435134 0.12983848
0.073268652 -0.091513023 0.12990203
0.073867999 -0.091590896 0.12996557
0.074466862 -0.091668785 0.13002911
0.065745287 -0.091956347 0.12945871
0.066372231 -0.091956347 0.12945871
0.067024209 -0.091878608 0.12939501
0.067651391 -0.091878608 0.12939501
0.068304069 -0.091800898 0.12933129
0.068957217 -0.091723174 0.12926759
0.069584869 -0.091723174 0.12926759
0.070238717 -0.091645479 0.1292039
0.070840165 -0.091723174 0.12926759
0.071467817 -0.091723174 0.12926759
0.072068557 -0.091800898 0.12933129
0.072668836 -0.091878608 0.12939501
0.073268652 -0.091956347 0.12945871
0.073867999 -0.092034042 0.12952241
0.074466862 -0.092111781 0.12958613
0.075065278 -0.092189491 0.12964983
0.066372231 -0.092399657 0.1290154
0.067049235 -0.092244551 0.12888765
0.067676648 -0.092244551 0.12888765
0.068304069 -0.092244551 0.12888765
0.068931475 -0.092244551 0.12888765
0.069584869 -0.09216699 0.12882377
0.070238717 -0.092089459 0.12875992
0.070866592 -0.092089459 0.12875992
0.071467817 -0.09216699 0.12882377
0.072068557 -0.092244551 0.12888765
0.072668836 -0.092322096 0.12895152
0.073296025 -0.092322096 0.12895152
0.073867999 -0.092477202 0.12907927
0.074466862 -0.092554763 0.12914315
0.075065278 -0.092632309 0.12920702
0.066372231 -0.092842981 0.12857208
0.067024209 -0.092765585 0.12850803
0.067676648 -0.092688203 0.128444
0.068304069 -0.092688203 0.128444
0.068982944 -0.092533439 0.12831593
0.069584869 -0.092610806 0.12837996
0.070238717 -0.092533439 0.12831593
0.070893019 -0.092456073 0.1282519
0.071494475 -0.092533439 0.12831593
0.072068557 -0.092688203 0.128444
0.072695971 -0.092688203 0.128444
0.073268652 -0.092842981 0.12857208
0.073895596 -0.092842981 0.12857208
0.074494705 -0.092920363 0.12863611
0.067024209 -0.093209058 0.12806454
0.067676648 -0.093131855 0.12800035
0.068329573 -0.093054622 0.12793614
0.068957217 -0.093054622 0.12793614
0.069610827 -0.092977419 0.12787196
0.070264906 -0.092900217 0.12780775
0.070919462 -0.092822984 0.12774354
0.071574479 -0.092745766 0.12767935
0.072122365 -0.092977419 0.12787196
0.072695971 -0.093131855 0.12800035
0.073296025 -0.093209058 0.12806454
0.073895596 -0.093286291 0.12812877
0.074494705 -0.093363509 0.12819296
0.067676648 -0.093575507 0.1275567
0.068431549 -0.093190253 0.12723486
0.069085866 -0.093113184 0.12717049
0.069636784 -0.093344361 0.12736361
0.070264906 -0.093344361 0.12736361
0.070972323 -0.093113184 0.12717049
0.071574479 -0.093190253 0.12723486
0.072176166 -0.093267292 0.12729923
0.072668836 -0.093652546 0.12762107
0.073296025 -0.093652546 0.12762107
0.073895596 -0.093729615 0.12768544
0.067929275 -0.093250275 0.12646769
0.068584524 -0.0931734 0.12640318
0.069265977 -0.09301962 0.12627411
0.069922395 -0.092942744 0.12620957
0.070579298 -0.09286584 0.12614504
0.071183786 -0.092942744 0.12620957
0.071734481 -0.0931734 0.12640318
0.072283775 -0.093404055 0.12659676
0.072831646 -0.093634725 0.12679039
0.073378131 -0.093865395 0.126984
0.074006014 -0.093865395 0.126984
0.069471814 -0.092851654 0.12531072
0.070104152 -0.092851654 0.12531072
0.070736483 -0.092851654 0.12531072
0.071342386 -0.09292838 0.1253754
0.071921147 -0.093081817 0.12550482
0.072498977 -0.093235269 0.12563421
0.072967328 -0.093695566 0.1260224
0.073514976 -0.093925759 0.1262165
0.070545547 -0.091997325 0.12376086
0.07120806 -0.091920793 0.12369601
0.071574852 -0.091301396 0.12233546
0.072241105 -0.091225013 0.12227044
0.070501029 -0.09114404 0.12136146
0.071220621 -0.090915382 0.12116589
0.071863025 -0.090915382 0.12116589
0.072531864 -0.090839148 0.12110068
0.073147833 -0.090915382 0.12116589
0.070012309 -0.091141433 0.12051554
0.070706874 -0.090989307 0.12038481
0.071350448 -0.090989307 0.12038481
0.072046429 -0.090837181 0.12025408
0.072716892 -0.09076114 0.12018874
0.073334508 -0.090837181 0.12025408
0.07019078 -0.09106493 0.1196021
0.07086125 -0.090989038 0.11953658
0.071506232 -0.090989038 0.11953658
0.072125018 -0.09106493 0.1196021
0.072769761 -0.09106493 0.1196021
0.07344117 -0.090989038 0.11953658
0.07413996 -0.09083724 0.11940552
0.069151558 -0.090763554 0.11848927
0.069773391 -0.090839282 0.11855495
0.07042025 -0.090839282 0.11855495
0.07104136 -0.090915009 0.11862066
0.071662024 -0.090990737 0.11868635
0.072308414 -0.090990737 0.11868635
0.072954789 -0.090990737 0.11868635
0.073601179 -0.090990737 0.11868635
0.074247569 -0.090990737 0.11868635
0.069401838 -0.090465471 0.11737311
0.06997548 -0.090692177 0.1175707
0.07062421 -0.090692177 0.1175707
0.071247205 -0.090767741 0.11763655
0.071843773 -0.090918869 0.11776827
0.072491802 -0.090918869 0.11776827
0.073139817 -0.090918869 0.11776827
0.073787846 -0.090918869 0.11776827
0.069049932 -0.090019941 0.11612161
0.069552004 -0.090472341 0.11651775
0.070177577 -0.090547711 0.11658378
0.070777193 -0.09069851 0.11671583
0.071427315 -0.09069851 0.11671583
0.072051495 -0.09077391 0.11678185
0.072648995 -0.090924695 0.11691388
0.073245555 -0.091075495 0.11704594
0.073921181 -0.09100011 0.11697993
0.07457038 -0.09100011 0.11697993
0.075219572 -0.09100011 0.11697993
0.069124311 -0.090255469 0.11546184
0.069727205 -0.090405911 0.11559419
0.070329152 -0.090556368 0.11572659
0.070904672 -0.090782076 0.11592516
0.071530238 -0.090857297 0.11599134
0.072129384 -0.091007754 0.11612374
0.072753794 -0.09108299 0.11618991
0.073404156 -0.09108299 0.11618991
0.074054524 -0.09108299 0.11618991
0.074704893 -0.09108299 0.11618991
0.069322661 -0.090116635 0.11446927
0.069927417 -0.090266749 0.114602
0.070531249 -0.090416893 0.11473471
0.071108639 -0.090642095 0.11493376
0.071684629 -0.090867266 0.11513284
0.072285175 -0.09101741 0.11526555
0.072884783 -0.091167539 0.11539826
0.073509879 -0.091242626 0.11546463
0.074134521 -0.091317669 0.11553097
0.074758686 -0.091392756 0.11559734
0.069496214 -0.090055361 0.1135406
0.070077591 -0.090280041 0.11374018
0.070657551 -0.090504766 0.11393975
0.071261622 -0.090654537 0.11407277
0.071839005 -0.090879261 0.11427234
0.072414994 -0.091103956 0.1144719
0.073015779 -0.091253743 0.11460495
0.073642053 -0.091328636 0.11467147
0.074267857 -0.091403559 0.11473799
0.074920096 -0.091403559 0.11473799
0.069109917 -0.089697465 0.11234286
0.069620185 -0.090145871 0.11274299
0.070202723 -0.090370074 0.11294305
0.070834383 -0.090444818 0.11300975
0.07141459 -0.090669006 0.1132098
0.071967654 -0.090967953 0.11347656
0.072544813 -0.091192141 0.11367661
0.073146768 -0.091341615 0.11380999
0.073747776 -0.091491088 0.11394337
0.074401192 -0.091491088 0.11394337
0.069159031 -0.090014324 0.11174315
0.069744147 -0.09023805 0.11194372
0.070327863 -0.090461731 0.11214426
0.070985958 -0.090461731 0.11214426
0.071542069 -0.090760022 0.11241169
0.072096311 -0.091058284 0.11267908
0.072700605 -0.09120743 0.11281279
0.073277757 -0.091431141 0.11301337
0.073906377 -0.091505706 0.1130802
0.074534528 -0.091580257 0.11314705
0.06923271 -0.090257466 0.11107577
0.069843322 -0.090406269 0.11120979
0.07047803 -0.090480655 0.11127682
0.071061745 -0.09070389 0.11147788
0.071669556 -0.090852663 0.1116119
0.072250687 -0.091075897 0.11181296
0.072830424 -0.091299102 0.11201403
0.073434956 -0.09144792 0.11214805
0.074064977 -0.091522306 0.11221506
0.074721202 -0.091522306 0.11221506
0.068742782 -0.090204641 0.11013864
0.069355503 -0.090353101 0.11027302
0.069992088 -0.090427339 0.11034019
0.070578143 -0.090650052 0.11054173
0.07121332 -0.090724304 0.11060894
0.071822532 -0.090872765 0.1107433
0.072353609 -0.091243953 0.11107922
0.072986215 -0.091318175 0.11114639
0.073618345 -0.091392428 0.11121358
0.074250005 -0.091466665 0.11128075
0.068888739 -0.090228185 0.10926655
0.06950286 -0.090376332 0.10940126
0.070091262 -0.090598539 0.10960329
0.070703283 -0.090746686 0.10973799
0.071314365 -0.090894833 0.1098727
0.071924515 -0.091042981 0.11000741
0.072507992 -0.091265187 0.11020944
0.073142 -0.091339275 0.11027679
0.073775537 -0.091413334 0.11034414
0.069059014 -0.090179831 0.10832496
0.06969934 -0.090253726 0.10839248
0.070264816 -0.09054935 0.10866253
0.070878476 -0.090697169 0.10879757
0.071491197 -0.090844989 0.1089326
0.072077498 -0.091066688 0.10913514
0.07271383 -0.091140628 0.10920265
0.073323749 -0.091288432 0.10933769
0.073906533 -0.091510147 0.10954024
0.069204964 -0.090207532 0.10744873
0.06984669 -0.090281278 0.10751642
0.070487961 -0.090355009 0.10758407
0.071078695 -0.090576246 0.10778713
0.071693301 -0.090723708 0.10792249
0.072255969 -0.091018677 0.1081932
0.072893947 -0.091092438 0.1082609
0.073557429 -0.091092438 0.1082609
0.068158656 -0.089795783 0.10616343
0.069375239 -0.090163648 0.10650267
0.070018604 -0.09023723 0.10657053
0.070661515 -0.090310797 0.10663836
0.071228862 -0.090605095 0.10690975
0.071870133 -0.090678662 0.10697758
0.07243444 -0.09097296 0.10724898
0.073074058 -0.091046557 0.10731682
0.073713221 -0.091120124 0.10738467
0.068301797 -0.089828432 0.10528223
0.068875939 -0.090122074 0.10555428
0.069521189 -0.090195507 0.10562231
0.070165962 -0.09026891 0.1056903
0.07076069 -0.090489119 0.10589434
0.071379028 -0.09063594 0.10603037
0.071996436 -0.090782762 0.10616638
0.072612911 -0.090929583 0.10630241
0.073254175 -0.091002986 0.10637042
0.07389497 -0.091076404 0.10643844
0.067820273 -0.089716613 0.10426269
0.068421081 -0.089936346 0.10446723
0.069020487 -0.090156063 0.10467175
0.069667138 -0.090229318 0.10473993
0.070288762 -0.090375811 0.10487629
0.070909441 -0.090522304 0.10501266
0.071529187 -0.090668797 0.10514902
0.072173275 -0.090742037 0.10521717
0.072816886 -0.090815261 0.10528535
0.073434286 -0.090961754 0.10542171
0.07407672 -0.091035008 0.10548989
0.06793838 -0.089826673 0.10344554
0.068564221 -0.089972809 0.1035822
0.069165029 -0.09019205 0.10378726
0.069813095 -0.090265125 0.10385559
0.070485234 -0.090265125 0.10385559
0.071132585 -0.090338215 0.10392395
0.071729414 -0.090557456 0.10412897
0.072375372 -0.090630502 0.10419729
0.073020846 -0.090703592 0.10426566
0.073665857 -0.090776667 0.104334
0.074336372 -0.090776667 0.104334
0.068056501 -0.089938357 0.10262671
0.068659648 -0.090157107 0.10283226
0.069333665 -0.090157107 0.10283226
0.069983363 -0.090230018 0.10290076
0.070632592 -0.090302944 0.10296927
0.071281351 -0.090375856 0.10303777
0.071954668 -0.090375856 0.10303777
0.072552204 -0.090594575 0.10324329
0.07322482 -0.090594575 0.10324329
0.073871695 -0.090667501 0.10331181
0.067498714 -0.090051726 0.10180625
0.068174608 -0.090051726 0.10180625
0.068826646 -0.090124488 0.10187493
0.069502302 -0.090124488 0.10187493
0.07012932 -0.090269968 0.10201228
0.070779949 -0.09034273 0.10208096
0.071430109 -0.090415463 0.10214961
0.072104834 -0.090415463 0.10214961
0.072754294 -0.090488225 0.1022183
0.073428787 -0.090488225 0.1022183
0.074103266 -0.090488225 0.1022183
0.067662433 -0.090021595 0.10084644
0.068292722 -0.090166762 0.10098413
0.068969786 -0.090166762 0.10098413
0.069598667 -0.09031193 0.10112181
0.070250943 -0.090384498 0.10119063
0.070927307 -0.090384498 0.10119063
0.071578868 -0.090457097 0.10125948
0.072254993 -0.090457097 0.10125948
0.072905868 -0.090529665 0.10132831
0.073556267 -0.090602249 0.10139717
0.074257657 -0.090529665 0.10132831
0.067146979 -0.089993775 0.099884316
0.067802764 -0.09006618 0.099953324
0.068434462 -0.090211019 0.10009132
0.069112927 -0.090211019 0.10009132
0.069767304 -0.090283453 0.10016035
0.070445538 -0.090283453 0.10016035
0.071074657 -0.090428278 0.10029835
0.071727633 -0.090500683 0.10036735
0.072380133 -0.090573102 0.10043637
0.073032178 -0.090645522 0.10050537
0.073709242 -0.090645522 0.10050537
0.074386306 -0.090645522 0.10050537
0.07506337 -0.090645522 0.10050537
0.067262746 -0.090112776 0.099058226
0.067919701 -0.090185016 0.099127382
0.068552569 -0.090329513 0.099265724
0.069232211 -0.090329513 0.099265724
0.06986367 -0.090474024 0.099404067
0.070518523 -0.090546265 0.099473238
0.071197458 -0.090546265 0.099473238
0.071851596 -0.090618521 0.099542424
0.07250528 -0.090690777 0.099611565
0.073183753 -0.090690777 0.099611565
0.073836721 -0.090763032 0.099680766
0.074514955 -0.090763032 0.099680766
0.067332216 -0.090377584 0.098369122
0.067989863 -0.090449676 0.098438472
0.068623438 -0.09059386 0.098577142
0.069279924 -0.090665936 0.098646462
0.069960035 -0.090665936 0.098646462
0.070640147 -0.090665936 0.098646462
0.071295694 -0.090738028 0.098715812
0.071950771 -0.09081009 0.098785147
0.07258036 -0.090954274 0.098923817
0.073259532 -0.090954274 0.098923817
0.073938712 -0.090954274 0.098923817
0.074617878 -0.090954274 0.098923817
0.066697001 -0.090715349 0.097748548
0.067355365 -0.090787247 0.097818047
0.068060026 -0.090715349 0.097748548
0.068694308 -0.09085916 0.097887546
0.069375351 -0.09085916 0.097887546
0.070080489 -0.090787247 0.097818047
0.070737444 -0.09085916 0.097887546
0.071418494 -0.09085916 0.097887546
0.072074741 -0.090931088 0.09795706
0.072705492 -0.091074929 0.098096073
0.073385842 -0.091074929 0.098096073
0.074040696 -0.091146842 0.098165557
0.074746527 -0.091074929 0.098096073
0.066765763 -0.090981975 0.097057641
0.067471132 -0.090910226 0.096987978
0.068176977 -0.090838462 0.0969183
0.068812415 -0.090981975 0.097057641
0.069518492 -0.090910226 0.096987978
0.070176847 -0.090981975 0.097057641
0.070883393 -0.090910226 0.096987978
0.071541287 -0.090981975 0.097057641
0.072198704 -0.091053739 0.097127318
0.072880685 -0.091053739 0.097127318
0.073512152 -0.091197252 0.097266644
0.074168175 -0.091268986 0.097336307
0.074849449 -0.091268986 0.097336307
0.066880368 -0.09110643 0.096226066
0.067586899 -0.091034859 0.096156254
0.068293914 -0.090963259 0.096086398
0.068954147 -0.091034859 0.096156254
0.069637768 -0.091034859 0.096156254
0.070321389 -0.091034859 0.096156254
0.070980698 -0.09110643 0.096226066
0.07166408 -0.09110643 0.096226066
0.072322682 -0.091178015 0.096295893
0.073005833 -0.091178015 0.096295893
0.073688991 -0.091178015 0.096295893
0.074321151 -0.091321185 0.096435577
0.067017883 -0.091161117 0.095322847
0.06772583 -0.091089696 0.095252857
0.068410859 -0.091089696 0.095252857
0.069072269 -0.091161117 0.095322847
0.069780916 -0.091089696 0.095252857
0.070490032 -0.091018274 0.095182836
0.071126647 -0.091161117 0.095322847
0.07178688 -0.091232553 0.095392853
0.072471432 -0.091232553 0.095392853
0.073181026 -0.091161117 0.095322847
0.073840559 -0.091232553 0.095392853
0.074474126 -0.091375396 0.095532864
0.067818448 -0.091289058 0.094487816
0.068527795 -0.091217816 0.094417647
0.069190376 -0.091289058 0.094487816
0.069900192 -0.091217816 0.094417647
0.070586391 -0.091217816 0.094417647
0.071248271 -0.091289058 0.094487816
0.071909674 -0.091360331 0.094557986
0.072595403 -0.091360331 0.094557986
0.073306166 -0.091289058 0.094487816
0.073916346 -0.091502815 0.094698295
0.067957371 -0.091347545 0.093580768
0.068621352 -0.091418669 0.093651101
0.069332115 -0.091347545 0.093580768
0.07006719 -0.091205388 0.09344013
0.070706852 -0.091347545 0.093580768
0.071394227 -0.091347545 0.093580768
0.072032474 -0.091489732 0.093721434
0.072744168 -0.091418669 0.093651101
0.073431298 -0.091418669 0.093651101
0.074118435 -0.091418669 0.093651101
0.0681426 -0.091266215 0.092530772
0.068831846 -0.091266215 0.092530772
0.069568336 -0.091124356 0.092389777
0.070234194 -0.091195285 0.092460245
0.070947759 -0.091124356 0.092389777
0.071588822 -0.091266215 0.092530772
0.072278067 -0.091266215 0.092530772
0.072967306 -0.091266215 0.092530772
0.073656552 -0.091266215 0.092530772
0.068350993 -0.091116741 0.091407448
0.069065735 -0.091045976 0.091336772
0.069780938 -0.09097521 0.091266125
0.070472762 -0.09097521 0.091266125
0.07114049 -0.091045976 0.091336772
0.071832076 -0.091045976 0.091336772
0.072499096 -0.091116741 0.091407448
0.073190451 -0.091116741 0.091407448
0.073831744 -0.091258273 0.091548771
0.074497372 -0.091329008 0.091619417
0.069252834 -0.090970248 0.090281144
0.069969922 -0.090899646 0.090210304
0.070663616 -0.090899646 0.090210304
0.07135731 -0.090899646 0.090210304
0.071978025 -0.091111436 0.090422809
0.072720133 -0.090970248 0.090281144
0.073413588 -0.090970248 0.090281144
0.074031964 -0.091182038 0.090493605
0.069393165 -0.091038018 0.089364842
0.070111655 -0.090967596 0.089293852
0.0707829 -0.091038018 0.089364842
0.071477763 -0.091038018 0.089364842
0.072172627 -0.091038018 0.089364842
0.072892047 -0.090967596 0.089293852
0.073587142 -0.090967596 0.089293852
0.074257217 -0.091038018 0.089364842
0.070253395 -0.091037527 0.088375375
0.071069174 -0.090686202 0.088019595
0.07171867 -0.090826735 0.088161916
0.072415873 -0.090826735 0.088161916
0.073113084 -0.090826735 0.088161916
0.073785499 -0.090896994 0.088233069
0.070678599 -0.090268269 0.086599052
0.071283884 -0.090548664 0.08688435
0.072007753 -0.090478584 0.086813033
0.072659135 -0.090618744 0.086955667
0.073358677 -0.090618744 0.086955667
0.070891201 -0.090134367 0.085460156
0.07159403 -0.090134367 0.085460156
0.072224572 -0.090344176 0.085674644
0.072829403 -0.090623885 0.085960582
0.073506027 -0.090693831 0.086032078
0.071174666 -0.089794159 0.084103331
0.07180874 -0.090003446 0.08431828
0.072417304 -0.090282515 0.084604919
0.069630757 -0.088553101 0.08180885
0.070249625 -0.088831514 0.08209613
0.070866637 -0.089109898 0.082383409
0.071529008 -0.089249104 0.082527041
0.072166584 -0.089457914 0.082742527
0.07287503 -0.089457914 0.082742527
0.073510505 -0.089666709 0.082957983
0 0 0 1 0 0 0 1 0 0 0 1 0 0 0 0 0 542 1 0 0
