ply
format ascii 1.0
comment PCL generated
element vertex 512
property float x
property float y
property float z
element camera 1
property float view_px
property float view_py
property float view_pz
property float x_axisx
property float x_axisy
property float x_axisz
property float y_axisx
property float y_axisy
property float y_axisz
property float z_axisx
property float z_axisy
property float z_axisz
property float focal
property float scalex
property float scaley
property float centerx
property float centery
property int viewportx
property int viewporty
property float k1
property float k2
end_header
0.069662757 -0.088824168 0.13174236
0.070291109 -0.088824168 0.13174236
0.070945889 -0.088745475 0.13167964
0.067727178 -0.089425579 0.1314238
0.068380557 -0.089347035 0.13136092
0.069008671 -0.089347035 0.13136092
0.069636784 -0.089347035 0.13136092
0.070264906 -0.089347035 0.13136092
0.070919462 -0.089268491 0.13129804
0.071521141 -0.089347035 0.13136092
0.072122365 -0.089425579 0.1314238
0.067074262 -0.089947909 0.13104284
0.067701921 -0.089947909 0.13104284
0.068355061 -0.089869559 0.13097982
0.069008671 -0.089791179 0.13091677
0.069636784 -0.089791179 0.13091677
0.070264906 -0.089791179 0.13091677
0.070893019 -0.089791179 0.13091677
0.071521141 -0.089791179 0.13091677
0.072095469 -0.089947909 0.13104284
0.072695971 -0.090026304 0.1311059
0.067049235 -0.090469956 0.13066225
0.067701921 -0.090391725 0.13059902
0.068329573 -0.090391725 0.13059902
0.068982944 -0.090313539 0.13053584
0.069610827 -0.090313539 0.13053584
0.070264906 -0.090235338 0.13047263
0.070893019 -0.090235338 0.13047263
0.071521141 -0.090235338 0.13047263
0.072095469 -0.090391725 0.13059902
0.072695971 -0.090469956 0.13066225
0.073268652 -0.090626389 0.13078867
0.073895596 -0.090626389 0.13078867
0.066372231 -0.091069698 0.13034534
0.067024209 -0.090991646 0.13028197
0.067676648 -0.090913609 0.1302186
0.068304069 -0.090913609 0.1302186
0.068957217 -0.090835541 0.13015521
0.069584869 -0.090835541 0.13015521
0.070238717 -0.090757519 0.13009186
0.070840165 -0.090835541 0.13015521
0.071467817 -0.090835541 0.13015521
0.072095469 -0.090835541 0.13015521
0.072668836 -0.090991646 0.13028197
0.073296025 -0.090991646 0.13028197
0.073867999 -0.091147751 0.13040872
0.06572073 -0.091590896 0.12996557
0.066372231 -0.091513023 0.12990203
0.067024209 -0.091435134 0.12983848
0.067651391 -0.091435134 0.12983848
0.068304069 -0.091357261 0.12977494
0.068931475 -0.091357261 0.12977494
0.069558896 -0.091357261 0.12977494
0.070212521 -0.091279358 0.12971139
0.070840165 -0.091279358 0.12971139
0.071467817 -0.091279358 0.12971139
0.072068557 -0.091357261 0.12977494
0.072641701 -0.091513023 0.12990203
0.073268652 -0.091513023 0.12990203
0.073867999 -0.091590896 0.12996557
0.074466862 -0.091668785 0.13002911
0.065696165 -0.092111781 0.12958613
0.066347443 -0.092034042 0.12952241
0.066999175 -0.091956347 0.12945871
0.067626126 -0.091956347 0.12945871
0.068304069 -0.091800898 0.12933129
0.068931475 -0.091800898 0.12933129
0.069558896 -0.091800898 0.12933129
0.070212521 -0.091723174 0.12926759
0.070813723 -0.091800898 0.12933129
0.071441144 -0.091800898 0.12933129
0.072041661 -0.091878608 0.12939501
0.072668836 -0.091878608 0.12939501
0.073268652 -0.091956347 0.12945871
0.073867999 -0.092034042 0.12952241
0.074466862 -0.092111781 0.12958613
0.066347443 -0.092477202 0.12907927
0.067024209 -0.092322096 0.12895152
0.067651391 -0.092322096 0.12895152
0.068278573 -0.092322096 0.12895152
0.068905748 -0.092322096 0.12895152
0.069584869 -0.09216699 0.12882377
0.070212521 -0.09216699 0.12882377
0.070840165 -0.09216699 0.12882377
0.071467817 -0.09216699 0.12882377
0.072068557 -0.092244551 0.12888765
0.072668836 -0.092322096 0.12895152
0.073268652 -0.092399657 0.1290154
0.073867999 -0.092477202 0.12907927
0.074466862 -0.092554763 0.12914315
0.066372231 -0.092842981 0.12857208
0.067024209 -0.092765585 0.12850803
0.067651391 -0.092765585 0.12850803
0.068278573 -0.092765585 0.12850803
0.068931475 -0.092688203 0.128444
0.069584869 -0.092610806 0.12837996
0.070212521 -0.092610806 0.12837996
0.070840165 -0.092610806 0.12837996
0.071467817 -0.092610806 0.12837996
0.072068557 -0.092688203 0.128444
0.072668836 -0.092765585 0.12850803
0.073268652 -0.092842981 0.12857208
0.073895596 -0.092842981 0.12857208
0.074494705 -0.092920363 0.12863611
0.066999175 -0.093286291 0.12812877
0.067651391 -0.093209058 0.12806454
0.068329573 -0.093054622 0.12793614
0.068957217 -0.093054622 0.12793614
0.069610827 -0.092977419 0.12787196
0.070264906 -0.092900217 0.12780775
0.070866592 -0.092977419 0.12787196
0.071494475 -0.092977419 0.12787196
0.072068557 -0.093131855 0.12800035
0.072668836 -0.093209058 0.12806454
0.073268652 -0.093286291 0.12812877
0.073867999 -0.093363509 0.12819296
0.074494705 -0.093363509 0.12819296
0.067626126 -0.093729615 0.12768544
0.068329573 -0.093498439 0.12749232
0.068982944 -0.0934214 0.12742797
0.069610827 -0.0934214 0.12742797
0.070212521 -0.093498439 0.12749232
0.070866592 -0.0934214 0.12742797
0.071521141 -0.093344361 0.12736361
0.072095469 -0.093498439 0.12749232
0.072668836 -0.093652546 0.12762107
0.073268652 -0.093729615 0.12768544
0.073895596 -0.093729615 0.12768544
0.067727178 -0.093865395 0.126984
0.068380557 -0.093788505 0.12691946
0.069034405 -0.093711615 0.12685493
0.069714688 -0.093557835 0.12672584
0.070369706 -0.093480945 0.12666132
0.070972323 -0.093557835 0.12672584
0.071547814 -0.093711615 0.12685493
0.072122365 -0.093865395 0.126984
0.072723113 -0.093942255 0.12704851
0.073296025 -0.094096035 0.12717758
0.068686515 -0.093311965 0.12569889
0.069265977 -0.093465418 0.12582831
0.069896437 -0.093465418 0.12582831
0.070526898 -0.093465418 0.12582831
0.07105162 -0.093772322 0.1260871
0.071654484 -0.093849018 0.1261518
0.072256871 -0.093925759 0.1262165
0.072804518 -0.094155923 0.1264106
0.070208006 -0.092992559 0.12460414
0.071050875 -0.092380106 0.12408519
0.070267268 -0.090380847 0.11986192
0.070938446 -0.090304777 0.11979654
0.071584128 -0.090304777 0.11979654
0.072229818 -0.090304777 0.11979654
0.072875492 -0.090304777 0.11979654
0.073521182 -0.090304777 0.11979654
0.069773391 -0.090381876 0.11901236
0.070369251 -0.090533674 0.11914341
0.071015634 -0.090533674 0.11914341
0.071662024 -0.090533674 0.11914341
0.072308414 -0.090533674 0.11914341
0.072954789 -0.090533674 0.11914341
0.073601179 -0.090533674 0.11914341
0.069823913 -0.090687811 0.11842357
0.070471242 -0.090687811 0.11842357
0.071118556 -0.090687811 0.11842357
0.071817815 -0.090536371 0.11829217
0.072387002 -0.090763554 0.11848927
0.073034085 -0.090763554 0.11848927
0.073681176 -0.090763554 0.11848927
0.074408978 -0.090536371 0.11829217
0.069326751 -0.090692177 0.1175707
0.06997548 -0.090692177 0.1175707
0.07062421 -0.090692177 0.1175707
0.071272932 -0.090692177 0.1175707
0.071895704 -0.090767741 0.11763655
0.072544202 -0.090767741 0.11763655
0.073192686 -0.090767741 0.11763655
0.073841184 -0.090767741 0.11763655
0.074462779 -0.09084329 0.11770241
0.069476917 -0.09069851 0.11671583
0.070127055 -0.09069851 0.11671583
0.070751697 -0.09077391 0.11678185
0.071401589 -0.09077391 0.11678185
0.072051495 -0.09077391 0.11678185
0.072622791 -0.09100011 0.11697993
0.073245555 -0.091075495 0.11704594
0.073921181 -0.09100011 0.11697993
0.07457038 -0.09100011 0.11697993
0.069074728 -0.090405911 0.11559419
0.069677144 -0.090556368 0.11572659
0.070253365 -0.090782076 0.11592516
0.070904672 -0.090782076 0.11592516
0.071478777 -0.091007754 0.11612374
0.072129384 -0.091007754 0.11612374
0.072727591 -0.091158226 0.11625612
0.073377714 -0.091158226 0.11625612
0.074027851 -0.091158226 0.11625612
0.074677989 -0.091158226 0.11625612
0.069273077 -0.090266749 0.114602
0.069877364 -0.090416893 0.11473471
0.070455462 -0.090642095 0.11493376
0.071057647 -0.090792209 0.11506648
0.071658894 -0.090942353 0.11519919
0.072233245 -0.091167539 0.11539826
0.072858579 -0.091242626 0.11546463
0.073483452 -0.091317669 0.11553097
0.074107848 -0.091392756 0.11559734
0.074758686 -0.091392756 0.11559734
0.069471426 -0.09013024 0.11360712
0.07002753 -0.090429857 0.11387321
0.070632294 -0.090579659 0.11400625
0.07121063 -0.090804338 0.11420581
0.071787544 -0.091029063 0.11440539
0.072363064 -0.091253743 0.11460495
0.072989583 -0.091328636 0.11467147
0.073615611 -0.091403559 0.11473799
0.074241191 -0.091478452 0.11480451
0.068572506 -0.089323789 0.11200944
0.069620185 -0.090145871 0.11274299
0.070177697 -0.090444818 0.11300975
0.070783868 -0.090594262 0.1131431
0.071312606 -0.090967953 0.11347656
0.071941927 -0.091042683 0.11354323
0.072518855 -0.09126687 0.11374329
0.073094368 -0.091491088 0.11394337
0.073747776 -0.091491088 0.11394337
0.074374527 -0.091565818 0.11401004
0.068105035 -0.089194059 0.11100776
0.06869413 -0.089417785 0.11120833
0.069208153 -0.089865178 0.11160944
0.069744147 -0.09023805 0.11194372
0.070327863 -0.090461731 0.11214426
0.070884913 -0.090760022 0.11241169
0.071465589 -0.090983734 0.11261223
0.072070576 -0.091132864 0.11274594
0.072648674 -0.091356561 0.11294651
0.07325156 -0.091505706 0.1130802
0.073879942 -0.091580257 0.11314705
0.068177305 -0.08943902 0.11033857
0.068742782 -0.08973664 0.11060664
0.069257274 -0.090183049 0.11100873
0.069868118 -0.090331852 0.11114277
0.07047803 -0.090480655 0.11127682
0.071036488 -0.090778291 0.11154489
0.071593069 -0.091075897 0.11181296
0.072199225 -0.0912247 0.11194701
0.072804458 -0.091373518 0.11208105
0.07340876 -0.091522306 0.11221506
0.074038535 -0.091596708 0.1122821
0.068225488 -0.089759201 0.10973553
0.068840086 -0.089907676 0.10986991
0.069380067 -0.090278864 0.11020581
0.069992088 -0.090427339 0.11034019
0.070578143 -0.090650052 0.11054173
0.071188062 -0.090798512 0.11067611
0.071746044 -0.091095477 0.11094485
0.072379336 -0.09116973 0.11101204
0.072986215 -0.091318175 0.11114639
0.073618345 -0.091392428 0.11121358
0.074250005 -0.091466665 0.11128075
0.067705385 -0.089783743 0.10886246
0.068297759 -0.090005979 0.10906452
0.068913057 -0.090154126 0.10919921
0.069527417 -0.090302259 0.1093339
0.070066467 -0.090672627 0.10967065
0.070703283 -0.090746686 0.10973799
0.07133963 -0.09082076 0.10980535
0.071899027 -0.091117054 0.11007473
0.072507992 -0.091265187 0.11020944
0.073142 -0.091339275 0.11027679
0.073801734 -0.091339275 0.11027679
0.067182459 -0.089810312 0.10798739
0.067776948 -0.090032011 0.10818993
0.068394125 -0.090179831 0.10832496
0.069010362 -0.09032765 0.10845999
0.069601104 -0.09054935 0.10866253
0.070215225 -0.090697169 0.10879757
0.070853442 -0.090771094 0.10886508
0.071491197 -0.090844989 0.1089326
0.072077498 -0.091066688 0.10913514
0.07271383 -0.091140628 0.10920265
0.073349714 -0.091214508 0.10927017
0.067896232 -0.090133786 0.10738105
0.068514571 -0.090281278 0.10751642
0.069156311 -0.090355009 0.10758407
0.069748454 -0.090576246 0.10778713
0.070388779 -0.090649977 0.10785481
0.071003608 -0.090797469 0.10799018
0.071668029 -0.090797469 0.10799018
0.072255969 -0.091018677 0.1081932
0.072919682 -0.091018677 0.1081932
0.073557429 -0.091092438 0.1082609
0.067347817 -0.09023723 0.10657053
0.067943946 -0.090457946 0.10677405
0.068610936 -0.090457946 0.10677405
0.069253616 -0.090531513 0.10684189
0.069920376 -0.090531513 0.10684189
0.070537545 -0.090678662 0.10697758
0.071178801 -0.090752259 0.10704544
0.071819603 -0.090825826 0.10711327
0.072485432 -0.090825826 0.10711327
0.073099792 -0.09097296 0.10724898
0.073739178 -0.091046557 0.10731682
0.068087086 -0.090489119 0.10589434
0.06873139 -0.090562537 0.10596237
0.069399558 -0.090562537 0.10596237
0.070067726 -0.090562537 0.10596237
0.070686303 -0.090709358 0.1060984
0.071353994 -0.090709358 0.1060984
0.071996436 -0.090782762 0.10616638
0.072663903 -0.090782762 0.10616638
0.073920935 -0.091002986 0.10637042
0.067560419 -0.090522304 0.10501266
0.06820637 -0.090595543 0.10508083
0.068851843 -0.090668797 0.10514902
0.069521189 -0.090668797 0.10514902
0.070215084 -0.090595543 0.10508083
0.070859857 -0.090668797 0.10514902
0.071529187 -0.090668797 0.10514902
0.072198533 -0.090668797 0.10514902
0.072842374 -0.090742037 0.10521717
0.074154615 -0.090815261 0.10528535
0.067702159 -0.090557456 0.10412897
0.068373367 -0.090557456 0.10412897
0.069020487 -0.090630502 0.10419729
0.069691464 -0.090630502 0.10419729
0.070362441 -0.090630502 0.10419729
0.071033418 -0.090630502 0.10419729
0.071679361 -0.090703592 0.10426566
0.072375372 -0.090630502 0.10419729
0.073046349 -0.090630502 0.10419729
0.073665857 -0.090776667 0.104334
0.074336372 -0.090776667 0.104334
0.068564221 -0.090448752 0.10310628
0.069189124 -0.090594575 0.10324329
0.06986174 -0.090594575 0.10324329
0.070583478 -0.090448752 0.10310628
0.071206972 -0.090594575 0.10324329
0.071879588 -0.090594575 0.10324329
0.072552204 -0.090594575 0.10324329
0.07322482 -0.090594575 0.10324329
0.073871695 -0.090667501 0.10331181
0.068731219 -0.090415463 0.10214961
0.069381848 -0.090488225 0.1022183
0.070056342 -0.090488225 0.1022183
0.070755392 -0.090415463 0.10214961
0.071405314 -0.090488225 0.1022183
0.0720798 -0.090488225 0.1022183
0.072754294 -0.090488225 0.1022183
0.073377796 -0.09063372 0.10235564
0.074051805 -0.09063372 0.10235564
0.068874359 -0.090457097 0.10125948
0.069550484 -0.090457097 0.10125948
0.070226617 -0.090457097 0.10125948
0.070902742 -0.090457097 0.10125948
0.071578868 -0.090457097 0.10125948
0.072229974 -0.090529665 0.10132831
0.072905868 -0.090529665 0.10132831
0.073581763 -0.090529665 0.10132831
0.074257657 -0.090529665 0.10132831
0.068993635 -0.090573102 0.10043637
0.069670938 -0.090573102 0.10043637
0.07034824 -0.090573102 0.10043637
0.071025535 -0.090573102 0.10043637
0.071702838 -0.090573102 0.10043637
0.072355106 -0.090645522 0.10050537
0.073057435 -0.090573102 0.10043637
0.073709242 -0.090645522 0.10050537
0.074386306 -0.090645522 0.10050537
0.068434462 -0.090690777 0.099611565
0.069112927 -0.090690777 0.099611565
0.069815487 -0.090618521 0.099542424
0.070469871 -0.090690777 0.099611565
0.071148336 -0.090690777 0.099611565
0.071802013 -0.090763032 0.099680766
0.07250528 -0.090690777 0.099611565
0.073183753 -0.090690777 0.099611565
0.073836721 -0.090763032 0.099680766
0.074514955 -0.090763032 0.099680766
0.069184497 -0.090954274 0.098923817
0.069911852 -0.09081009 0.098785147
0.070591494 -0.09081009 0.098785147
0.071271136 -0.09081009 0.098785147
0.071950771 -0.09081009 0.098785147
0.072630413 -0.09081009 0.098785147
0.073310055 -0.09081009 0.098785147
0.073938712 -0.090954274 0.098923817
0.074617878 -0.090954274 0.098923817
0.069351494 -0.090931088 0.09795706
0.070056401 -0.09085916 0.097887546
0.070737444 -0.09085916 0.097887546
0.071393929 -0.090931088 0.09795706
0.072074741 -0.090931088 0.09795706
0.072755553 -0.090931088 0.09795706
0.073436365 -0.090931088 0.09795706
0.074066184 -0.091074929 0.098096073
0.074797988 -0.090931088 0.09795706
0.069542348 -0.090838462 0.0969183
0.07022503 -0.090838462 0.0969183
0.070859075 -0.090981975 0.097057641
0.071541287 -0.090981975 0.097057641
0.072223507 -0.090981975 0.097057641
0.072905719 -0.090981975 0.097057641
0.073587939 -0.090981975 0.097057641
0.074244663 -0.091053739 0.097127318
0.069685481 -0.090891674 0.096016586
0.070369571 -0.090891674 0.096016586
0.071029343 -0.090963259 0.096086398
0.07166408 -0.09110643 0.096226066
0.072322682 -0.091178015 0.096295893
0.073055878 -0.091034859 0.096156254
0.073714249 -0.09110643 0.096226066
0.074397638 -0.09110643 0.096226066
0.069876343 -0.090804011 0.094972864
0.070538208 -0.090875447 0.095042869
0.0711753 -0.091018274 0.095182836
0.071811438 -0.091161117 0.095322847
0.072471432 -0.091232553 0.095392853
0.073181026 -0.091161117 0.095322847
0.073865823 -0.091161117 0.095322847
0.074550621 -0.091161117 0.095322847
0.068691514 -0.090719014 0.093926504
0.069332115 -0.090861514 0.094066799
0.07006719 -0.090719014 0.093926504
0.070706852 -0.090861514 0.094066799
0.071369894 -0.090932786 0.094136983
0.071958795 -0.091217816 0.094417647
0.072644986 -0.091217816 0.094417647
0.073331185 -0.091217816 0.094417647
0.074017391 -0.091217816 0.094417647
0.068855241 -0.090707749 0.092947781
0.069544718 -0.090707749 0.092947781
0.070234194 -0.090707749 0.092947781
0.070923671 -0.090707749 0.092947781
0.071564503 -0.090849921 0.093088448
0.072179824 -0.091063201 0.093299463
0.072843343 -0.091134295 0.093369782
0.073506378 -0.091205388 0.09344013
0.074219488 -0.091134295 0.093369782
0.06904234 -0.090627879 0.09189631
0.06975732 -0.090556949 0.091825798
0.070425048 -0.090627879 0.09189631
0.071068212 -0.090769738 0.092037305
0.071734779 -0.090840638 0.092107788
0.072376303 -0.090982497 0.092248783
0.073016897 -0.091124356 0.092389777
0.073681578 -0.091195285 0.092460245
0.074371062 -0.091195285 0.092460245
0.068559378 -0.090479895 0.090771496
0.069206059 -0.090621427 0.090912819
0.069946297 -0.090479895 0.090771496
0.070592038 -0.090621427 0.090912819
0.071285032 -0.090621427 0.090912819
0.071929373 -0.090762943 0.091054142
0.07259734 -0.090833694 0.091124788
0.073240034 -0.09097521 0.091266125
0.073906831 -0.091045976 0.091336772
0.074573152 -0.091116741 0.091407448
0.069369778 -0.090617284 0.089927018
0.070064411 -0.090617284 0.089927018
0.070735186 -0.090687856 0.089997828
0.07142958 -0.090687856 0.089997828
0.072123975 -0.090687856 0.089997828
0.072744697 -0.090899646 0.090210304
0.073438391 -0.090899646 0.090210304
0.074107051 -0.090970248 0.090281144
0.069486715 -0.090756327 0.08908087
0.070182517 -0.090756327 0.08908087
0.070854463 -0.090826735 0.089151859
0.071574122 -0.090756327 0.08908087
0.072245598 -0.090826735 0.089151859
0.072892047 -0.090967596 0.089293852
0.073587142 -0.090967596 0.089293852
0.074282244 -0.090967596 0.089293852
0.069697209 -0.090615958 0.087948456
0.070371501 -0.090686202 0.088019595
0.071069174 -0.090686202 0.088019595
0.071766853 -0.090686202 0.088019595
0.072464526 -0.090686202 0.088019595
0.073162198 -0.090686202 0.088019595
0.073810287 -0.090826735 0.088161916
0.069884323 -0.090548664 0.08688435
0.070631355 -0.090408474 0.086741701
0.071307741 -0.090478584 0.086813033
0.071983665 -0.090548664 0.08688435
0.072659135 -0.090618744 0.086955667
0.073358677 -0.090618744 0.086955667
0.073959053 -0.090899155 0.087240964
0.070258535 -0.089924589 0.085245684
0.07091482 -0.090064436 0.085388675
0.071570165 -0.090204298 0.085531667
0.072200485 -0.090414107 0.085746124
0.072878055 -0.090484008 0.085817605
0.073530592 -0.090623885 0.085960582
0.074206978 -0.090693831 0.086032078
0.070469029 -0.089794159 0.084103331
0.071151048 -0.089863911 0.084174976
0.07176102 -0.09014298 0.0844616
0.072369121 -0.090422049 0.084748223
0.073072657 -0.090422049 0.084748223
0.073727064 -0.090561569 0.084891543
0.069447398 -0.089109898 0.082383409
0.070110708 -0.089249104 0.082527041
0.070749685 -0.089457914 0.082742527
0.07143452 -0.089527503 0.082814336
0.072142728 -0.089527503 0.082814336
0.072706394 -0.089945123 0.083245263
0.073413208 -0.089945123 0.083245263
0.070960179 -0.089333951 0.081593692
0.071647123 -0.089403361 0.08166568
0.072381295 -0.089333951 0.081593692
0.073164128 -0.089125633 0.081377745
0.07387539 -0.089125633 0.081377745
0 0 0 1 0 0 0 1 0 0 0 1 0 0 0 0 0 512 1 0 0
