ply
format ascii 1.0
comment PCL generated
element vertex 530
property float x
property float y
property float z
element camera 1
property float view_px
property float view_py
property float view_pz
property float x_axisx
property float x_axisy
property float x_axisz
property float y_axisx
property float y_axisy
property float y_axisz
property float z_axisx
property float z_axisy
property float z_axisz
property float focal
property float scalex
property float scaley
property float centerx
property float centery
property int viewportx
property int viewporty
property float k1
property float k2
end_header
0.069034405 -0.088824168 0.13174236
0.069688715 -0.088745475 0.13167964
0.070317306 -0.088745475 0.13167964
0.070893019 -0.088902891 0.13180508
0.071521141 -0.088902891 0.13180508
0.067777701 -0.089268491 0.13129804
0.068406053 -0.089268491 0.13129804
0.069008671 -0.089347035 0.13136092
0.069662757 -0.089268491 0.13129804
0.070291109 -0.089268491 0.13129804
0.070893019 -0.089347035 0.13136092
0.071521141 -0.089347035 0.13136092
0.072122365 -0.089425579 0.1314238
0.072723113 -0.089504093 0.13148665
0.067124315 -0.089791179 0.13091677
0.067727178 -0.089869559 0.13097982
0.068406053 -0.089712799 0.13085373
0.069008671 -0.089791179 0.13091677
0.069636784 -0.089791179 0.13091677
0.070291109 -0.089712799 0.13085373
0.070893019 -0.089791179 0.13091677
0.071521141 -0.089791179 0.13091677
0.072095469 -0.089947909 0.13104284
0.072695971 -0.090026304 0.1311059
0.073323391 -0.090026304 0.1311059
0.067074262 -0.090391725 0.13059902
0.067727178 -0.090313539 0.13053584
0.068380557 -0.090235338 0.13047263
0.068982944 -0.090313539 0.13053584
0.069610827 -0.090313539 0.13053584
0.070238717 -0.090313539 0.13053584
0.070866592 -0.090313539 0.13053584
0.071494475 -0.090313539 0.13053584
0.072095469 -0.090391725 0.13059902
0.072723113 -0.090391725 0.13059902
0.073296025 -0.090548158 0.13072546
0.073923208 -0.090548158 0.13072546
0.066446617 -0.090835541 0.13015521
0.067074262 -0.090835541 0.13015521
0.067701921 -0.090835541 0.13015521
0.068329573 -0.090835541 0.13015521
0.068982944 -0.090757519 0.13009186
0.069610827 -0.090757519 0.13009186
0.070238717 -0.090757519 0.13009186
0.070840165 -0.090835541 0.13015521
0.071467817 -0.090835541 0.13015521
0.072068557 -0.090913609 0.1302186
0.072695971 -0.090913609 0.1302186
0.073296025 -0.090991646 0.13028197
0.073895596 -0.091069698 0.13034534
0.07452254 -0.091069698 0.13034534
0.066421822 -0.091357261 0.12977494
0.067049235 -0.091357261 0.12977494
0.067701921 -0.091279358 0.12971139
0.068304069 -0.091357261 0.12977494
0.068931475 -0.091357261 0.12977494
0.069584869 -0.091279358 0.12971139
0.070212521 -0.091279358 0.12971139
0.070866592 -0.091201499 0.12964788
0.071441144 -0.091357261 0.12977494
0.072068557 -0.091357261 0.12977494
0.072668836 -0.091435134 0.12983848
0.073268652 -0.091513023 0.12990203
0.073895596 -0.091513023 0.12990203
0.074494705 -0.091590896 0.12996557
0.075121418 -0.091590896 0.12996557
0.066421822 -0.091800898 0.12933129
0.067049235 -0.091800898 0.12933129
0.067651391 -0.091878608 0.12939501
0.068304069 -0.091800898 0.12933129
0.068931475 -0.091800898 0.12933129
0.069558896 -0.091800898 0.12933129
0.070212521 -0.091723174 0.12926759
0.070840165 -0.091723174 0.12926759
0.071467817 -0.091723174 0.12926759
0.072068557 -0.091800898 0.12933129
0.072695971 -0.091800898 0.12933129
0.073296025 -0.091878608 0.12939501
0.073895596 -0.091956347 0.12945871
0.074494705 -0.092034042 0.12952241
0.075093344 -0.092111781 0.12958613
0.066421822 -0.092244551 0.12888765
0.067049235 -0.092244551 0.12888765
0.067676648 -0.092244551 0.12888765
0.068278573 -0.092322096 0.12895152
0.068931475 -0.092244551 0.12888765
0.069558896 -0.092244551 0.12888765
0.070212521 -0.09216699 0.12882377
0.070840165 -0.09216699 0.12882377
0.071467817 -0.09216699 0.12882377
0.072068557 -0.092244551 0.12888765
0.072668836 -0.092322096 0.12895152
0.073296025 -0.092322096 0.12895152
0.073895596 -0.092399657 0.1290154
0.074494705 -0.092477202 0.12907927
0.075121418 -0.092477202 0.12907927
0.067024209 -0.092765585 0.12850803
0.067676648 -0.092688203 0.128444
0.068304069 -0.092688203 0.128444
0.068931475 -0.092688203 0.128444
0.069584869 -0.092610806 0.12837996
0.070186317 -0.092688203 0.128444
0.070866592 -0.092533439 0.12831593
0.071467817 -0.092610806 0.12837996
0.072068557 -0.092688203 0.128444
0.072668836 -0.092765585 0.12850803
0.073296025 -0.092765585 0.12850803
0.073895596 -0.092842981 0.12857208
0.07452254 -0.092842981 0.12857208
0.075121418 -0.092920363 0.12863611
0.067024209 -0.093209058 0.12806454
0.067676648 -0.093131855 0.12800035
0.068355061 -0.092977419 0.12787196
0.068982944 -0.092977419 0.12787196
0.069610827 -0.092977419 0.12787196
0.070291109 -0.092822984 0.12774354
0.070919462 -0.092822984 0.12774354
0.071547814 -0.092822984 0.12774354
0.072176166 -0.092822984 0.12774354
0.072750241 -0.092977419 0.12787196
0.073350765 -0.093054622 0.12793614
0.073923208 -0.093209058 0.12806454
0.07452254 -0.093286291 0.12812877
0.067727178 -0.0934214 0.12742797
0.068406053 -0.093267292 0.12729923
0.069060132 -0.093190253 0.12723486
0.069636784 -0.093344361 0.12736361
0.070291109 -0.093267292 0.12729923
0.070972323 -0.093113184 0.12717049
0.071601145 -0.093113184 0.12717049
0.072203062 -0.093190253 0.12723486
0.072804518 -0.093267292 0.12729923
0.073405497 -0.093344361 0.12736361
0.073923208 -0.093652546 0.12762107
0.067853481 -0.093480945 0.12666132
0.068559036 -0.093250275 0.12646769
0.069214515 -0.0931734 0.12640318
0.069922395 -0.092942744 0.12620957
0.070526898 -0.09301962 0.12627411
0.071183786 -0.092942744 0.12620957
0.071787819 -0.09301962 0.12627411
0.072283775 -0.093404055 0.12659676
0.072885916 -0.093480945 0.12666132
0.07343287 -0.093711615 0.12685493
0.074033618 -0.093788505 0.12691946
0.06942036 -0.093005091 0.12544011
0.070052229 -0.093005091 0.12544011
0.070710286 -0.09292838 0.1253754
0.07126309 -0.093158528 0.12556949
0.071894489 -0.093158528 0.12556949
0.07241828 -0.093465418 0.12582831
0.072940193 -0.093772322 0.1260871
0.073514976 -0.093925759 0.1262165
0.069934957 -0.091920793 0.12369601
0.070415728 -0.092380106 0.12408519
0.070998475 -0.092533216 0.12421492
0.071527414 -0.09283945 0.12447439
0.072161153 -0.09283945 0.12447439
0.073265813 -0.093298778 0.12486359
0.070935018 -0.091301396 0.12233546
0.071391448 -0.091836169 0.12279068
0.071818173 -0.092447266 0.12331092
0.071090803 -0.091296494 0.12149186
0.071653441 -0.091525167 0.12168746
0.072241105 -0.091677606 0.12181784
0.071298517 -0.091141433 0.12051554
0.071941629 -0.091141433 0.12051554
0.072611161 -0.091065377 0.12045018
0.073227838 -0.091141433 0.12051554
0.069546036 -0.09106493 0.1196021
0.07019078 -0.09106493 0.1196021
0.070835523 -0.09106493 0.1196021
0.071454301 -0.091140836 0.11966763
0.072072625 -0.091216713 0.11973315
0.072690465 -0.09129259 0.11979868
0.073414512 -0.09106493 0.1196021
0.069126531 -0.090839282 0.11855495
0.069748126 -0.090915009 0.11862066
0.070394747 -0.090915009 0.11862066
0.07104136 -0.090915009 0.11862066
0.071662024 -0.090990737 0.11868635
0.072256014 -0.091142192 0.11881775
0.072875492 -0.091217905 0.11888342
0.073521182 -0.091217905 0.11888342
0.074193761 -0.091142192 0.11881775
0.069301724 -0.090767741 0.11763655
0.069924966 -0.09084329 0.11770241
0.07054773 -0.090918869 0.11776827
0.071195744 -0.090918869 0.11776827
0.071765885 -0.091145545 0.11796583
0.072413206 -0.091145545 0.11796583
0.073034085 -0.091221109 0.11803171
0.073681176 -0.091221109 0.11803171
0.074328266 -0.091221109 0.11803171
0.069526978 -0.090547711 0.11658378
0.070127055 -0.09069851 0.11671583
0.070675202 -0.09100011 0.11697993
0.071350127 -0.090924695 0.11691388
0.071947634 -0.091075495 0.11704594
0.072544202 -0.091226295 0.11717799
0.073192686 -0.091226295 0.11717799
0.073867843 -0.091150895 0.11711198
0.068950757 -0.090782076 0.11592516
0.069577031 -0.090857297 0.11599134
0.070228107 -0.090857297 0.11599134
0.07085368 -0.090932548 0.11605754
0.07145305 -0.09108299 0.11618991
0.072077453 -0.091158226 0.11625612
0.072701395 -0.091233462 0.11632229
0.073298417 -0.091383904 0.11645468
0.073947854 -0.091383904 0.11645468
0.074597284 -0.091383904 0.11645468
0.069124311 -0.090717167 0.11500014
0.069752224 -0.090792209 0.11506648
0.070354417 -0.090942353 0.11519919
0.071006656 -0.090942353 0.11519919
0.071581706 -0.091167539 0.11539826
0.072207272 -0.091242626 0.11546463
0.072832383 -0.091317669 0.11553097
0.07345701 -0.091392756 0.11559734
0.074081182 -0.091467813 0.11566368
0.074677989 -0.091617942 0.1157964
0.068667844 -0.090579659 0.11400625
0.069273077 -0.090729445 0.1141393
0.069902398 -0.090804338 0.11420581
0.070531249 -0.090879261 0.11427234
0.071108639 -0.091103956 0.1144719
0.071710356 -0.091253743 0.11460495
0.072337106 -0.091328636 0.11467147
0.072937183 -0.091478452 0.11480451
0.073509879 -0.091703162 0.11500409
0.074161187 -0.091703162 0.11500409
0.068815202 -0.090594262 0.1131431
0.069421835 -0.090743735 0.11327648
0.070077591 -0.090743735 0.11327648
0.070657551 -0.090967953 0.11347656
0.071261622 -0.091117397 0.11360991
0.071864739 -0.09126687 0.11374329
0.072440952 -0.091491088 0.11394337
0.073068172 -0.091565818 0.11401004
0.07366848 -0.091715276 0.11414342
0.074321188 -0.091715276 0.11414342
0.068962559 -0.090610877 0.11227798
0.069570594 -0.090760022 0.11241169
0.070202723 -0.090834588 0.11247854
0.070809126 -0.090983734 0.11261223
0.07141459 -0.091132864 0.11274594
0.071967654 -0.091431141 0.11301337
0.072596744 -0.091505706 0.1130802
0.073199168 -0.091654837 0.11321391
0.07382708 -0.091729403 0.11328076
0.068450883 -0.090629473 0.11141086
0.069060795 -0.090778291 0.11154489
0.069694564 -0.090852663 0.1116119
0.070327863 -0.090927079 0.11167893
0.070960701 -0.091001481 0.11174594
0.071542069 -0.0912247 0.11194701
0.072147764 -0.091373518 0.11208105
0.072752535 -0.091522306 0.11221506
0.073382556 -0.091596708 0.1122821
0.074012108 -0.091671109 0.11234911
0.068621159 -0.090575814 0.11047457
0.06923271 -0.090724304 0.11060894
0.069843322 -0.090872765 0.1107433
0.070503056 -0.090872765 0.1107433
0.07108701 -0.091095477 0.11094485
0.071695052 -0.091243953 0.11107922
0.072302148 -0.091392428 0.11121358
0.07290832 -0.091540903 0.11134796
0.073513545 -0.091689393 0.11148232
0.068864405 -0.090302259 0.1093339
0.069453746 -0.09052448 0.10953596
0.070066467 -0.090672627 0.10967065
0.070703283 -0.090746686 0.10973799
0.071263842 -0.091042981 0.11000741
0.071822532 -0.091339275 0.11027679
0.072482258 -0.091339275 0.11027679
0.073116034 -0.091413334 0.11034414
0.073723137 -0.091561481 0.11047885
0.068514571 -0.089810312 0.10798739
0.069059014 -0.090179831 0.10832496
0.06969934 -0.090253726 0.10839248
0.070289604 -0.09047547 0.10859503
0.070903495 -0.090623289 0.10873005
0.071491197 -0.090844989 0.1089326
0.072051995 -0.091140628 0.10920265
0.07271383 -0.091140628 0.10920265
0.073297784 -0.091362327 0.1094052
0.073958926 -0.091362327 0.1094052
0.069253616 -0.09006004 0.10731336
0.069871254 -0.090207532 0.10744873
0.070487961 -0.090355009 0.10758407
0.071078695 -0.090576246 0.10778713
0.071718559 -0.090649977 0.10785481
0.072281457 -0.090944946 0.10812555
0.072919682 -0.091018677 0.1081932
0.073531464 -0.091166154 0.10832858
0.074194714 -0.091166154 0.10832858
0.06827794 -0.089427888 0.1058242
0.068827756 -0.089795783 0.10616343
0.069472544 -0.089869335 0.10623127
0.070067726 -0.090090081 0.10643482
0.070686303 -0.09023723 0.10657053
0.071278915 -0.090457946 0.10677405
0.071895391 -0.090605095 0.10690975
0.072510928 -0.090752259 0.10704544
0.073151253 -0.090825826 0.10711327
0.073765151 -0.09097296 0.10724898
0.06834951 -0.08968161 0.1051462
0.068996392 -0.089755028 0.10521422
0.069618486 -0.08990185 0.10535026
0.070239641 -0.090048671 0.10548629
0.070884652 -0.090122074 0.10555428
0.071479142 -0.090342298 0.10575831
0.072072223 -0.090562537 0.10596237
0.072740391 -0.090562537 0.10596237
0.07335709 -0.090709358 0.1060984
0.074024789 -0.090709358 0.1060984
0.067843899 -0.089643359 0.10419451
0.068468794 -0.089789852 0.10433087
0.069116846 -0.089863107 0.10439906
0.069764443 -0.089936346 0.10446723
0.070362441 -0.090156063 0.10467175
0.071008623 -0.090229318 0.10473993
0.071629301 -0.090375811 0.10487629
0.072249055 -0.090522304 0.10501266
0.072893374 -0.090595543 0.10508083
0.073537201 -0.090668797 0.10514902
0.06728822 -0.089753583 0.10337719
0.06793838 -0.089826673 0.10344554
0.068611935 -0.089826673 0.10344554
0.069261394 -0.089899749 0.10351388
0.069910392 -0.089972809 0.1035822
0.070534356 -0.09011896 0.10371891
0.071182176 -0.09019205 0.10378726
0.071829528 -0.090265125 0.10385559
0.072451152 -0.090411291 0.10399228
0.073071845 -0.090557456 0.10412897
0.073717318 -0.090630502 0.10419729
0.074388295 -0.090630502 0.10419729
0.067358382 -0.090011299 0.10269523
0.068032876 -0.090011299 0.10269523
0.068707362 -0.090011299 0.10269523
0.069333665 -0.090157107 0.10283226
0.070007689 -0.090157107 0.10283226
0.070657149 -0.090230018 0.10290076
0.071330935 -0.090230018 0.10290076
0.071979687 -0.090302944 0.10296927
0.072627984 -0.090375856 0.10303777
0.073301308 -0.090375856 0.10303777
0.07394889 -0.090448752 0.10310628
0.066730201 -0.09034273 0.10208096
0.067405157 -0.09034273 0.10208096
0.068103746 -0.090269968 0.10201228
0.068778932 -0.090269968 0.10201228
0.069454126 -0.090269968 0.10201228
0.07012932 -0.090269968 0.10201228
0.070804507 -0.090269968 0.10201228
0.071454905 -0.09034273 0.10208096
0.072129861 -0.09034273 0.10208096
0.072779559 -0.090415463 0.10214961
0.073454283 -0.090415463 0.10214961
0.074129 -0.090415463 0.10214961
0.066799663 -0.090602249 0.10139717
0.067498714 -0.090529665 0.10132831
0.068198226 -0.090457097 0.10125948
0.068874359 -0.090457097 0.10125948
0.06957458 -0.090384498 0.10119063
0.070250943 -0.090384498 0.10119063
0.070902742 -0.090457097 0.10125948
0.071578868 -0.090457097 0.10125948
0.072254993 -0.090457097 0.10125948
0.072905868 -0.090529665 0.10132831
0.073581763 -0.090529665 0.10132831
0.074283384 -0.090457097 0.10125948
0.066869132 -0.090862751 0.10071237
0.067568876 -0.090790361 0.10064338
0.068245478 -0.090790361 0.10064338
0.068922073 -0.090790361 0.10064338
0.069670938 -0.090573102 0.10043637
0.07034824 -0.090573102 0.10043637
0.0710501 -0.090500683 0.10036735
0.071702838 -0.090573102 0.10043637
0.072355106 -0.090645522 0.10050537
0.073032178 -0.090645522 0.10050537
0.073709242 -0.090645522 0.10050537
0.074386306 -0.090645522 0.10050537
0.066938587 -0.091124281 0.10002661
0.067615651 -0.091124281 0.10002661
0.068339966 -0.09097977 0.099888265
0.0690175 -0.09097977 0.099888265
0.069719121 -0.090907529 0.099819094
0.070445538 -0.090763032 0.099680766
0.071148336 -0.090690777 0.099611565
0.071826808 -0.090690777 0.099611565
0.072480246 -0.090763032 0.099680766
0.073158488 -0.090763032 0.099680766
0.073836721 -0.090763032 0.099680766
0.07454069 -0.090690777 0.099611565
0.066961743 -0.091530949 0.099478528
0.067662433 -0.091458857 0.099409178
0.068410829 -0.091242626 0.099201173
0.069112927 -0.09117052 0.099131823
0.069815487 -0.091098443 0.099062502
0.070518523 -0.091026351 0.098993152
0.071222015 -0.090954274 0.098923817
0.071876399 -0.091026351 0.098993152
0.072555333 -0.091026351 0.098993152
0.073259532 -0.090954274 0.098923817
0.073913217 -0.091026351 0.098993152
0.067054361 -0.091722205 0.098721594
0.06777937 -0.091578364 0.098582581
0.06845808 -0.091578364 0.098582581
0.069184497 -0.091434523 0.098443568
0.06993594 -0.09121877 0.098235071
0.070640147 -0.091146842 0.098165557
0.071344808 -0.091074929 0.098096073
0.07202515 -0.091074929 0.098096073
0.072680473 -0.091146842 0.098165557
0.073385842 -0.091074929 0.098096073
0.074040696 -0.091146842 0.098165557
0.074746527 -0.091074929 0.098096073
0.068670683 -0.0914125 0.097475648
0.069375351 -0.091340736 0.09740597
0.070104577 -0.091197252 0.097266644
0.070834741 -0.091053739 0.097127318
0.071516722 -0.091053739 0.097127318
0.072198704 -0.091053739 0.097127318
0.072830632 -0.091197252 0.097266644
0.073562674 -0.091053739 0.097127318
0.074193664 -0.091197252 0.097266644
0.068859667 -0.091321185 0.096435577
0.069590062 -0.091178015 0.096295893
0.070297301 -0.09110643 0.096226066
0.070980698 -0.09110643 0.096226066
0.07166408 -0.09110643 0.096226066
0.072322682 -0.091178015 0.096295893
0.073030859 -0.09110643 0.096226066
0.073714249 -0.09110643 0.096226066
0.074397638 -0.09110643 0.096226066
0.069072269 -0.091161117 0.095322847
0.069780916 -0.091089696 0.095252857
0.070465937 -0.091089696 0.095252857
0.071150973 -0.091089696 0.095252857
0.071835995 -0.091089696 0.095252857
0.072496235 -0.091161117 0.095322847
0.073206052 -0.091089696 0.095252857
0.073865823 -0.091161117 0.095322847
0.07457611 -0.091089696 0.095252857
0.069284871 -0.091004029 0.094207138
0.069995627 -0.090932786 0.094136983
0.070658669 -0.091004029 0.094207138
0.071345575 -0.091004029 0.094207138
0.071958795 -0.091217816 0.094417647
0.072644986 -0.091217816 0.094417647
0.073331185 -0.091217816 0.094417647
0.073992133 -0.091289058 0.094487816
0.068761684 -0.090992108 0.093229115
0.069497474 -0.090849921 0.093088448
0.070186481 -0.090849921 0.093088448
0.070827305 -0.090992108 0.093229115
0.071491517 -0.091063201 0.093299463
0.07213071 -0.091205388 0.09344013
0.072768964 -0.091347545 0.093580768
0.073506378 -0.091205388 0.09344013
0.074194223 -0.091205388 0.09344013
0.068995565 -0.090769738 0.092037305
0.069733694 -0.090627879 0.09189631
0.070377328 -0.090769738 0.092037305
0.071020029 -0.090911582 0.092178285
0.071686126 -0.090982497 0.092248783
0.072302625 -0.091195285 0.092460245
0.072992101 -0.091195285 0.092460245
0.073681578 -0.091195285 0.092460245
0.074371062 -0.091195285 0.092460245
0.069159284 -0.090762943 0.091054142
0.069875434 -0.090692177 0.090983465
0.070568189 -0.090692177 0.090983465
0.071212761 -0.090833694 0.091124788
0.071856402 -0.09097521 0.091266125
0.072499096 -0.091116741 0.091407448
0.073190451 -0.091116741 0.091407448
0.073831744 -0.091258273 0.091548771
0.074522629 -0.091258273 0.091548771
0.069346391 -0.090687856 0.089997828
0.070040792 -0.090687856 0.089997828
0.070735186 -0.090687856 0.089997828
0.071381398 -0.090829059 0.090139478
0.072026677 -0.090970248 0.090281144
0.072671011 -0.091111436 0.090422809
0.073364004 -0.091111436 0.090422809
0.07405699 -0.091111436 0.090422809
0.069486715 -0.090756327 0.08908087
0.070182517 -0.090756327 0.08908087
0.070878319 -0.090756327 0.08908087
0.071550034 -0.090826735 0.089151859
0.072196953 -0.090967596 0.089293852
0.07286749 -0.091038018 0.089364842
0.073587142 -0.090967596 0.089293852
0.074257217 -0.091038018 0.089364842
0.070418753 -0.090545684 0.087877274
0.071069174 -0.090686202 0.088019595
0.07171867 -0.090826735 0.088161916
0.072415873 -0.090826735 0.088161916
0.073113084 -0.090826735 0.088161916
0.073785499 -0.090896994 0.088233069
0.070631355 -0.090408474 0.086741701
0.071331598 -0.090408474 0.086741701
0.071983665 -0.090548664 0.08688435
0.072683454 -0.090548664 0.08688435
0.073358677 -0.090618744 0.086955667
0.074008636 -0.09075895 0.087098315
0.070281923 -0.089854643 0.085174188
0.070962064 -0.089924589 0.085245684
0.071570165 -0.090204298 0.085531667
0.072200485 -0.090414107 0.085746124
0.0729267 -0.090344176 0.085674644
0.073604271 -0.090414107 0.085746124
0.074281365 -0.090484008 0.085817605
0.070469029 -0.089794159 0.084103331
0.071151048 -0.089863911 0.084174976
0.071784876 -0.090073213 0.084389955
0.072417304 -0.090282515 0.084604919
0.073096983 -0.090352282 0.084676549
0.070041239 -0.089457914 0.082742527
0.070679523 -0.089666709 0.082957983
0.07143452 -0.089527503 0.082814336
0.072071165 -0.089736298 0.083029792
0.072706394 -0.089945123 0.083245263
0.073461853 -0.089805916 0.08310163
0 0 0 1 0 0 0 1 0 0 0 1 0 0 0 0 0 530 1 0 0
