ply
format ascii 1.0
comment PCL generated
element vertex 540
property float x
property float y
property float z
element camera 1
property float view_px
property float view_py
property float view_pz
property float x_axisx
property float x_axisy
property float x_axisz
property float y_axisx
property float y_axisy
property float y_axisz
property float z_axisx
property float z_axisy
property float z_axisz
property float focal
property float scalex
property float scaley
property float centerx
property float centery
property int viewportx
property int viewporty
property float k1
property float k2
end_header
0.069034405 -0.088824168 0.13174236
0.069662757 -0.088824168 0.13174236
0.070291109 -0.088824168 0.13174236
0.070866592 -0.088981599 0.13186778
0.071467817 -0.089060277 0.13193047
0.067752436 -0.089347035 0.13136092
0.068380557 -0.089347035 0.13136092
0.069008671 -0.089347035 0.13136092
0.069636784 -0.089347035 0.13136092
0.070264906 -0.089347035 0.13136092
0.070840165 -0.089504093 0.13148665
0.071441144 -0.089582652 0.13154955
0.072041661 -0.089661196 0.13161242
0.067124315 -0.089791179 0.13091677
0.067752436 -0.089791179 0.13091677
0.068380557 -0.089791179 0.13091677
0.069008671 -0.089791179 0.13091677
0.069636784 -0.089791179 0.13091677
0.070264906 -0.089791179 0.13091677
0.070840165 -0.089947909 0.13104284
0.071441144 -0.090026304 0.1311059
0.072014757 -0.090183064 0.13123199
0.072641701 -0.090183064 0.13123199
0.066471405 -0.090313539 0.13053584
0.067099288 -0.090313539 0.13053584
0.067727178 -0.090313539 0.13053584
0.068355061 -0.090313539 0.13053584
0.068982944 -0.090313539 0.13053584
0.069584869 -0.090391725 0.13059902
0.070212521 -0.090391725 0.13059902
0.070840165 -0.090391725 0.13059902
0.071414478 -0.090548158 0.13072546
0.072014757 -0.090626389 0.13078867
0.072614565 -0.09070459 0.13085188
0.073213905 -0.090782821 0.13091509
0.066446617 -0.090835541 0.13015521
0.067074262 -0.090835541 0.13015521
0.067701921 -0.090835541 0.13015521
0.068329573 -0.090835541 0.13015521
0.068957217 -0.090835541 0.13015521
0.069558896 -0.090913609 0.1302186
0.070186317 -0.090913609 0.1302186
0.070813723 -0.090913609 0.1302186
0.071414478 -0.090991646 0.13028197
0.072014757 -0.091069698 0.13034534
0.07258743 -0.091225803 0.13047211
0.073213905 -0.091225803 0.13047211
0.07381279 -0.09130384 0.13053548
0.065769851 -0.091435134 0.12983848
0.066397026 -0.091435134 0.12983848
0.067049235 -0.091357261 0.12977494
0.067651391 -0.091435134 0.12983848
0.068304069 -0.091357261 0.12977494
0.068931475 -0.091357261 0.12977494
0.069558896 -0.091357261 0.12977494
0.070186317 -0.091357261 0.12977494
0.070787296 -0.091435134 0.12983848
0.071387805 -0.091513023 0.12990203
0.07198786 -0.091590896 0.12996557
0.07258743 -0.091668785 0.13002911
0.073186539 -0.091746658 0.13009265
0.073785178 -0.091824561 0.1301562
0.074411184 -0.091824561 0.1301562
0.065745287 -0.091956347 0.12945871
0.066372231 -0.091956347 0.12945871
0.067024209 -0.091878608 0.12939501
0.067626126 -0.091956347 0.12945871
0.068278573 -0.091878608 0.12939501
0.068905748 -0.091878608 0.12939501
0.069532938 -0.091878608 0.12939501
0.070160121 -0.091878608 0.12939501
0.070787296 -0.091878608 0.12939501
0.071414478 -0.091878608 0.12939501
0.072014757 -0.091956347 0.12945871
0.07258743 -0.092111781 0.12958613
0.073213905 -0.092111781 0.12958613
0.07381279 -0.092189491 0.12964983
0.074411184 -0.092267215 0.12971355
0.06572073 -0.092477202 0.12907927
0.066347443 -0.092477202 0.12907927
0.067024209 -0.092322096 0.12895152
0.067651391 -0.092322096 0.12895152
0.068253078 -0.092399657 0.1290154
0.068905748 -0.092322096 0.12895152
0.069558896 -0.092244551 0.12888765
0.070186317 -0.092244551 0.12888765
0.070787296 -0.092322096 0.12895152
0.071414478 -0.092322096 0.12895152
0.072014757 -0.092399657 0.1290154
0.07258743 -0.092554763 0.12914315
0.073241286 -0.092477202 0.12907927
0.07381279 -0.092632309 0.12920702
0.074439026 -0.092632309 0.12920702
0.066372231 -0.092842981 0.12857208
0.067024209 -0.092765585 0.12850803
0.067676648 -0.092688203 0.128444
0.068278573 -0.092765585 0.12850803
0.068905748 -0.092765585 0.12850803
0.069558896 -0.092688203 0.128444
0.070186317 -0.092688203 0.128444
0.070813723 -0.092688203 0.128444
0.071441144 -0.092688203 0.128444
0.072041661 -0.092765585 0.12850803
0.072614565 -0.092920363 0.12863611
0.073241286 -0.092920363 0.12863611
0.073840387 -0.09299776 0.12870017
0.066999175 -0.093286291 0.12812877
0.067651391 -0.093209058 0.12806454
0.068329573 -0.093054622 0.12793614
0.068957217 -0.093054622 0.12793614
0.069610827 -0.092977419 0.12787196
0.070238717 -0.092977419 0.12787196
0.070840165 -0.093054622 0.12793614
0.071467817 -0.093054622 0.12793614
0.072095469 -0.093054622 0.12793614
0.072641701 -0.093286291 0.12812877
0.073268652 -0.093286291 0.12812877
0.073867999 -0.093363509 0.12819296
0.067676648 -0.093575507 0.1275567
0.068329573 -0.093498439 0.12749232
0.068957217 -0.093498439 0.12749232
0.069610827 -0.0934214 0.12742797
0.070238717 -0.0934214 0.12742797
0.070893019 -0.093344361 0.12736361
0.071521141 -0.093344361 0.12736361
0.072122365 -0.0934214 0.12742797
0.072723113 -0.093498439 0.12749232
0.073268652 -0.093729615 0.12768544
0.067727178 -0.093865395 0.126984
0.068406053 -0.093711615 0.12685493
0.069111593 -0.093480945 0.12666132
0.069792576 -0.09332718 0.12653224
0.070422105 -0.09332718 0.12653224
0.07105162 -0.09332718 0.12653224
0.071681149 -0.09332718 0.12653224
0.072229974 -0.093557835 0.12672584
0.072804518 -0.093711615 0.12685493
0.068005055 -0.093465418 0.12582831
0.068661012 -0.093388706 0.12576361
0.069368899 -0.093158528 0.12556949
0.070052229 -0.093005091 0.12544011
0.070657894 -0.093081817 0.12550482
0.071342386 -0.09292838 0.1253754
0.07194782 -0.093005091 0.12544011
0.06972912 -0.092533216 0.12421492
0.070363797 -0.092533216 0.12421492
0.070998475 -0.092533216 0.12421492
0.071659572 -0.092456669 0.12415007
0.070732601 -0.090913266 0.12031946
0.071376413 -0.090913266 0.12031946
0.072046429 -0.090837181 0.12025408
0.07266403 -0.090913266 0.12031946
0.073307842 -0.090913266 0.12031946
0.069251671 -0.090002418 0.11868472
0.069798648 -0.090305999 0.11894682
0.070394747 -0.090457782 0.11907789
0.070938446 -0.090761334 0.11933997
0.071558163 -0.09083724 0.11940552
0.072125018 -0.09106493 0.1196021
0.072796188 -0.090989038 0.11953658
0.073494509 -0.09083724 0.11940552
0.068520486 -0.088718906 0.11671555
0.069501951 -0.089703351 0.11756955
0.069874443 -0.090536371 0.11829217
0.070445739 -0.090763554 0.11848927
0.071067095 -0.090839282 0.11855495
0.071687981 -0.090915009 0.11862066
0.072282217 -0.091066465 0.11875202
0.072901927 -0.091142192 0.11881775
0.073521182 -0.091217905 0.11888342
0.074193761 -0.091142192 0.11881775
0.068013035 -0.088727564 0.11585835
0.068569608 -0.089029804 0.1161218
0.069099523 -0.089407608 0.11645108
0.069602057 -0.089861006 0.11684625
0.070051275 -0.090465471 0.11737311
0.07062421 -0.090692177 0.1175707
0.071247205 -0.090767741 0.11763655
0.071843773 -0.090918869 0.11776827
0.072413206 -0.091145545 0.11796583
0.07306052 -0.091145545 0.11796583
0.073681176 -0.091221109 0.11803171
0.074328266 -0.091221109 0.11803171
0.067526847 -0.088662803 0.11493316
0.068037353 -0.089115188 0.11532933
0.06861873 -0.089341372 0.11552738
0.069173895 -0.089642972 0.11579148
0.069752224 -0.089869142 0.11598955
0.070228107 -0.090396911 0.11645171
0.070802689 -0.090623111 0.11664979
0.071401589 -0.09077391 0.11678185
0.071973592 -0.09100011 0.11697993
0.072570391 -0.091150895 0.11711198
0.073192686 -0.091226295 0.11717799
0.073814519 -0.09130168 0.11724402
0.074462779 -0.09130168 0.11724402
0.067599118 -0.088901296 0.11427042
0.068207629 -0.089051768 0.1144028
0.068766087 -0.089352667 0.11466755
0.069273077 -0.089804068 0.11506468
0.069827311 -0.090104997 0.11532946
0.070404939 -0.090330675 0.11552802
0.070981167 -0.090556368 0.11572659
0.071530238 -0.090857297 0.11599134
0.072077453 -0.091158226 0.11625612
0.072701395 -0.091233462 0.11632229
0.073271982 -0.09145917 0.11652087
0.073921181 -0.09145917 0.11652087
0.074543484 -0.091534376 0.11658706
0.067695484 -0.089065701 0.11354029
0.068304934 -0.089215845 0.11367302
0.068864316 -0.089516118 0.11393845
0.069372252 -0.089966491 0.11433658
0.069977477 -0.090116635 0.11446927
0.070531249 -0.090416893 0.11473471
0.071108639 -0.090642095 0.11493376
0.071658894 -0.090942353 0.11519919
0.072207272 -0.091242626 0.11546463
0.07280618 -0.091392756 0.11559734
0.073404156 -0.09154287 0.11573003
0.074027851 -0.091617942 0.1157964
0.074677989 -0.091617942 0.1157964
0.067743666 -0.089381263 0.11294192
0.068377912 -0.089456141 0.11300842
0.068962559 -0.089680851 0.113208
0.069496214 -0.090055361 0.1135406
0.070077591 -0.090280041 0.11374018
0.070657551 -0.090504766 0.11393975
0.071236119 -0.090729445 0.1141393
0.071787544 -0.091029063 0.11440539
0.072363064 -0.091253743 0.11460495
0.072963379 -0.091403559 0.11473799
0.073536314 -0.091628253 0.11493756
0.074161187 -0.091703162 0.11500409
0.074758686 -0.091852963 0.11513713
0.067840032 -0.089547992 0.11220948
0.068426557 -0.08977221 0.11240956
0.069060795 -0.089846939 0.11247624
0.069620185 -0.090145871 0.11274299
0.070177697 -0.090444818 0.11300975
0.070783868 -0.090594262 0.1131431
0.07133811 -0.090893209 0.11340986
0.0719162 -0.091117397 0.11360991
0.072492883 -0.091341615 0.11380999
0.073068172 -0.091565818 0.11401004
0.073694907 -0.091640562 0.11407673
0.07429453 -0.091790006 0.1142101
0.06671001 -0.089417785 0.11120833
0.067371383 -0.089417785 0.11120833
0.067936398 -0.089716047 0.11147574
0.068523854 -0.089939758 0.11167631
0.069109917 -0.090163469 0.11187686
0.069719359 -0.090312615 0.11201057
0.070327863 -0.090461731 0.11214426
0.070884913 -0.090760022 0.11241169
0.071465589 -0.090983734 0.11261223
0.072044849 -0.09120743 0.11281279
0.072622709 -0.091431141 0.11301337
0.073225372 -0.091580257 0.11314705
0.07382708 -0.091729403 0.11328076
0.074454524 -0.091803983 0.11334762
0.06739524 -0.089811027 0.11067365
0.068008669 -0.089959845 0.11080769
0.06859684 -0.090183049 0.11100873
0.069208153 -0.090331852 0.11114277
0.069818534 -0.090480655 0.11127682
0.070427977 -0.090629473 0.11141086
0.07101123 -0.090852663 0.1116119
0.071593069 -0.091075897 0.11181296
0.072173499 -0.091299102 0.11201403
0.072752535 -0.091522306 0.11221506
0.073382556 -0.091596708 0.1122821
0.073959239 -0.091819927 0.11248314
0.067442961 -0.090130374 0.11007145
0.068056852 -0.090278864 0.11020581
0.06869413 -0.090353101 0.11027302
0.069281831 -0.090575814 0.11047457
0.069917709 -0.090650052 0.11054173
0.07052809 -0.090798512 0.11067611
0.071137533 -0.090947002 0.11081047
0.071720548 -0.09116973 0.11101204
0.072302148 -0.091392428 0.11121358
0.07290832 -0.091540903 0.11134796
0.073487349 -0.091763616 0.11154951
0.074117832 -0.091837868 0.1116167
0.067586094 -0.090154126 0.10919921
0.068201393 -0.090302259 0.1093339
0.068791434 -0.09052448 0.10953596
0.069429189 -0.090598539 0.10960329
0.070041671 -0.090746686 0.10973799
0.070678249 -0.09082076 0.10980535
0.071263842 -0.091042981 0.11000741
0.071873523 -0.091191128 0.11014211
0.072456531 -0.091413334 0.11034414
0.073038138 -0.09163557 0.1105462
0.073670745 -0.091709629 0.11061355
0.067729235 -0.090179831 0.10832496
0.068345942 -0.09032765 0.10845999
0.06896171 -0.09047547 0.10859503
0.069601104 -0.09054935 0.10866253
0.070215225 -0.090697169 0.10879757
0.070853442 -0.090771094 0.10886508
0.071415417 -0.091066688 0.10913514
0.072026506 -0.091214508 0.10927017
0.072636642 -0.091362327 0.1094052
0.073245853 -0.091510147 0.10954024
0.073854133 -0.091657966 0.10967527
0.068490483 -0.090355009 0.10758407
0.069107659 -0.090502486 0.10771945
0.069748454 -0.090576246 0.10778713
0.070388779 -0.090649977 0.10785481
0.071053669 -0.090649977 0.10785481
0.071668029 -0.090797469 0.10799018
0.072230466 -0.091092438 0.1082609
0.072868221 -0.091166154 0.10832858
0.073505498 -0.091239914 0.10839626
0.068610936 -0.090457946 0.10677405
0.069253616 -0.090531513 0.10684189
0.069944933 -0.090457946 0.10677405
0.070562333 -0.090605095 0.10690975
0.071203835 -0.090678662 0.10697758
0.071844868 -0.090752259 0.10704544
0.07243444 -0.09097296 0.10724898
0.073074058 -0.091046557 0.10731682
0.073739178 -0.091046557 0.10731682
0.067513175 -0.090195507 0.10562231
0.068134807 -0.090342298 0.10575831
0.068755485 -0.090489119 0.10589434
0.069423892 -0.090489119 0.10589434
0.070092291 -0.090489119 0.10589434
0.070735887 -0.090562537 0.10596237
0.071404055 -0.090562537 0.10596237
0.0720217 -0.090709358 0.1060984
0.072663903 -0.090782762 0.10616638
0.073279902 -0.090929583 0.10630241
0.067631297 -0.090302557 0.10480811
0.06827794 -0.090375811 0.10487629
0.068948209 -0.090375811 0.10487629
0.069569834 -0.090522304 0.10501266
0.070288762 -0.090375811 0.10487629
0.070909441 -0.090522304 0.10501266
0.071579248 -0.090522304 0.10501266
0.072223797 -0.090595543 0.10508083
0.072893374 -0.090595543 0.10508083
0.073537201 -0.090668797 0.10514902
0.067773022 -0.090338215 0.10392395
0.068421081 -0.090411291 0.10399228
0.069092758 -0.090411291 0.10399228
0.06971579 -0.090557456 0.10412897
0.07043612 -0.090411291 0.10399228
0.071058206 -0.090557456 0.10412897
0.071779475 -0.090411291 0.10399228
0.07240063 -0.090557456 0.10412897
0.073071845 -0.090557456 0.10412897
0.073717318 -0.090630502 0.10419729
0.067891143 -0.090448752 0.10310628
0.068564221 -0.090448752 0.10310628
0.069237307 -0.090448752 0.10310628
0.069910392 -0.090448752 0.10310628
0.070583478 -0.090448752 0.10310628
0.071281351 -0.090375856 0.10303777
0.071954668 -0.090375856 0.10303777
0.072627984 -0.090375856 0.10303777
0.073301308 -0.090375856 0.10303777
0.073974617 -0.090375856 0.10303777
0.068032876 -0.090488225 0.1022183
0.068707362 -0.090488225 0.1022183
0.069381848 -0.090488225 0.1022183
0.070056342 -0.090488225 0.1022183
0.070755392 -0.090415463 0.10214961
0.071430109 -0.090415463 0.10214961
0.072129861 -0.09034273 0.10208096
0.072779559 -0.090415463 0.10214961
0.073454283 -0.090415463 0.10214961
0.074129 -0.090415463 0.10214961
0.068174608 -0.090529665 0.10132831
0.068826646 -0.090602249 0.10139717
0.069526397 -0.090529665 0.10132831
0.070202291 -0.090529665 0.10132831
0.070902742 -0.090457097 0.10125948
0.071578868 -0.090457097 0.10125948
0.072254993 -0.090457097 0.10125948
0.072931126 -0.090457097 0.10125948
0.073607258 -0.090457097 0.10125948
0.074283384 -0.090457097 0.10125948
0.068292722 -0.090645522 0.10050537
0.068922073 -0.090790361 0.10064338
0.06964685 -0.090645522 0.10050537
0.07034824 -0.090573102 0.10043637
0.071025535 -0.090573102 0.10043637
0.071727633 -0.090500683 0.10036735
0.072380133 -0.090573102 0.10043637
0.073057435 -0.090573102 0.10043637
0.073734738 -0.090573102 0.10043637
0.074412033 -0.090573102 0.10043637
0.075115301 -0.090500683 0.10036735
0.068410829 -0.090763032 0.099680766
0.06908907 -0.090763032 0.099680766
0.069791399 -0.090690777 0.099611565
0.070469871 -0.090690777 0.099611565
0.071148336 -0.090690777 0.099611565
0.071851596 -0.090618521 0.099542424
0.07250528 -0.090690777 0.099611565
0.073183753 -0.090690777 0.099611565
0.073862225 -0.090690777 0.099611565
0.074566416 -0.090618521 0.099542424
0.068505324 -0.090954274 0.098923817
0.069184497 -0.090954274 0.098923817
0.069911852 -0.09081009 0.098785147
0.070591494 -0.09081009 0.098785147
0.071222015 -0.090954274 0.098923817
0.071950771 -0.09081009 0.098785147
0.07258036 -0.090954274 0.098923817
0.073310055 -0.09081009 0.098785147
0.073938712 -0.090954274 0.098923817
0.074669339 -0.09081009 0.098785147
0.068670683 -0.090931088 0.09795706
0.069351494 -0.090931088 0.09795706
0.070056401 -0.09085916 0.097887546
0.070737444 -0.09085916 0.097887546
0.071393929 -0.090931088 0.09795706
0.072074741 -0.090931088 0.09795706
0.072755553 -0.090931088 0.09795706
0.073436365 -0.090931088 0.09795706
0.074066184 -0.091074929 0.098096073
0.074797988 -0.090931088 0.09795706
0.069518492 -0.090910226 0.096987978
0.07022503 -0.090838462 0.0969183
0.070883393 -0.090910226 0.096987978
0.071541287 -0.090981975 0.097057641
0.072248295 -0.090910226 0.096987978
0.072905719 -0.090981975 0.097057641
0.073587939 -0.090981975 0.097057641
0.074244663 -0.091053739 0.097127318
0.074926637 -0.091053739 0.097127318
0.069685481 -0.090891674 0.096016586
0.070369571 -0.090891674 0.096016586
0.071029343 -0.090963259 0.096086398
0.071688637 -0.091034859 0.096156254
0.072397061 -0.090963259 0.096086398
0.073055878 -0.091034859 0.096156254
0.073764771 -0.090963259 0.096086398
0.074423134 -0.091034859 0.096156254
0.069190376 -0.090804011 0.094972864
0.069876343 -0.090804011 0.094972864
0.070562303 -0.090804011 0.094972864
0.071223944 -0.090875447 0.095042869
0.071860559 -0.091018274 0.095182836
0.072521023 -0.091089696 0.095252857
0.073206052 -0.091089696 0.095252857
0.073891081 -0.091089696 0.095252857
0.074550621 -0.091161117 0.095322847
0.06864474 -0.090861514 0.094066799
0.069379352 -0.090719014 0.093926504
0.07006719 -0.090719014 0.093926504
0.070706852 -0.090861514 0.094066799
0.071345575 -0.091004029 0.094207138
0.072007909 -0.091075301 0.094277307
0.072644986 -0.091217816 0.094417647
0.073381245 -0.091075301 0.094277307
0.074067913 -0.091075301 0.094277307
0.074754581 -0.091075301 0.094277307
0.068808459 -0.090849921 0.093088448
0.069497474 -0.090849921 0.093088448
0.070186481 -0.090849921 0.093088448
0.070827305 -0.090992108 0.093229115
0.071491517 -0.091063201 0.093299463
0.072155267 -0.091134295 0.093369782
0.07281854 -0.091205388 0.09344013
0.073506378 -0.091205388 0.09344013
0.0741437 -0.091347545 0.093580768
0.068281531 -0.090840638 0.092107788
0.068972178 -0.090840638 0.092107788
0.069662832 -0.090840638 0.092107788
0.070329614 -0.090911582 0.092178285
0.071020029 -0.090911582 0.092178285
0.071686126 -0.090982497 0.092248783
0.072302625 -0.091195285 0.092460245
0.072967306 -0.091266215 0.092530772
0.073656552 -0.091266215 0.092530772
0.074345797 -0.091266215 0.092530772
0.068443611 -0.090833694 0.091124788
0.069089122 -0.09097521 0.091266125
0.06982819 -0.090833694 0.091124788
0.070520476 -0.090833694 0.091124788
0.071164578 -0.09097521 0.091266125
0.071832076 -0.091045976 0.091336772
0.072449982 -0.091258273 0.091548771
0.07314086 -0.091258273 0.091548771
0.073806718 -0.091329008 0.091619417
0.074497372 -0.091329008 0.091619417
0.069252834 -0.090970248 0.090281144
0.069946297 -0.090970248 0.090281144
0.070663616 -0.090899646 0.090210304
0.071333215 -0.090970248 0.090281144
0.072026677 -0.090970248 0.090281144
0.072646454 -0.091182038 0.090493605
0.073339209 -0.091182038 0.090493605
0.074006937 -0.09125264 0.090564445
0.074623674 -0.0914644 0.090776935
0.069393165 -0.091038018 0.089364842
0.070111655 -0.090967596 0.089293852
0.070806749 -0.090967596 0.089293852
0.071477763 -0.091038018 0.089364842
0.072148301 -0.091108456 0.089435846
0.072818369 -0.091178879 0.089506805
0.073512763 -0.091178879 0.089506805
0.074157104 -0.09131974 0.089648798
0.070300639 -0.090896994 0.088233069
0.07102146 -0.090826735 0.088161916
0.071670488 -0.090967268 0.088304237
0.072367229 -0.090967268 0.088304237
0.073039405 -0.091037527 0.088375375
0.073686317 -0.091178045 0.088517696
0.070631355 -0.090408474 0.086741701
0.071307741 -0.090478584 0.086813033
0.071959578 -0.090618744 0.086955667
0.072610483 -0.09075895 0.087098315
0.073284999 -0.090829059 0.087169647
0.073909461 -0.091039345 0.087383613
0.070188373 -0.090134367 0.085460156
0.07091482 -0.090064436 0.085388675
0.071570165 -0.090204298 0.085531667
0.072176397 -0.090484008 0.085817605
0.072878055 -0.090484008 0.085817605
0.073530592 -0.090623885 0.085960582
0.074206978 -0.090693831 0.086032078
0.070445642 -0.089863911 0.084174976
0.071151048 -0.089863911 0.084174976
0.071784876 -0.090073213 0.084389955
0.072393216 -0.090352282 0.084676549
0.073072657 -0.090422049 0.084748223
0.073727064 -0.090561569 0.084891543
0.06951616 -0.088901088 0.082167953
0.070133857 -0.089179501 0.082455248
0.070819855 -0.089249104 0.082527041
0.071529008 -0.089249104 0.082527041
0.072166584 -0.089457914 0.082742527
0.07280276 -0.089666709 0.082957983
0.073510505 -0.089666709 0.082957983
0 0 0 1 0 0 0 1 0 0 0 1 0 0 0 0 0 540 1 0 0
