ply
format ascii 1.0
comment PCL generated
element vertex 527
property float x
property float y
property float z
element camera 1
property float view_px
property float view_py
property float view_pz
property float x_axisx
property float x_axisy
property float x_axisz
property float y_axisx
property float y_axisy
property float y_axisz
property float z_axisx
property float z_axisy
property float z_axisz
property float focal
property float scalex
property float scaley
property float centerx
property float centery
property int viewportx
property int viewporty
property float k1
property float k2
end_header
0.069034405 -0.088824168 0.13174236
0.069662757 -0.088824168 0.13174236
0.070291109 -0.088824168 0.13174236
0.070893019 -0.088902891 0.13180508
0.067777701 -0.089268491 0.13129804
0.068380557 -0.089347035 0.13136092
0.069008671 -0.089347035 0.13136092
0.069636784 -0.089347035 0.13136092
0.070264906 -0.089347035 0.13136092
0.070866592 -0.089425579 0.1314238
0.071494475 -0.089425579 0.1314238
0.072068557 -0.089582652 0.13154955
0.067099288 -0.089869559 0.13097982
0.067727178 -0.089869559 0.13097982
0.068380557 -0.089791179 0.13091677
0.069008671 -0.089791179 0.13091677
0.069636784 -0.089791179 0.13091677
0.070264906 -0.089791179 0.13091677
0.070866592 -0.089869559 0.13097982
0.071467817 -0.089947909 0.13104284
0.072068557 -0.090026304 0.1311059
0.072668836 -0.090104669 0.13116893
0.073296025 -0.090104669 0.13116893
0.066421822 -0.090469956 0.13066225
0.067049235 -0.090469956 0.13066225
0.067701921 -0.090391725 0.13059902
0.068355061 -0.090313539 0.13053584
0.068982944 -0.090313539 0.13053584
0.069610827 -0.090313539 0.13053584
0.070238717 -0.090313539 0.13053584
0.070840165 -0.090391725 0.13059902
0.071467817 -0.090391725 0.13059902
0.072068557 -0.090469956 0.13066225
0.072668836 -0.090548158 0.13072546
0.073268652 -0.090626389 0.13078867
0.073867999 -0.09070459 0.13085188
0.066397026 -0.090991646 0.13028197
0.067024209 -0.090991646 0.13028197
0.067651391 -0.090991646 0.13028197
0.068329573 -0.090835541 0.13015521
0.068957217 -0.090835541 0.13015521
0.069610827 -0.090757519 0.13009186
0.070212521 -0.090835541 0.13015521
0.070840165 -0.090835541 0.13015521
0.071441144 -0.090913609 0.1302186
0.072068557 -0.090913609 0.1302186
0.072641701 -0.091069698 0.13034534
0.073241286 -0.091147751 0.13040872
0.073840387 -0.091225803 0.13047211
0.065745287 -0.091513023 0.12990203
0.066372231 -0.091513023 0.12990203
0.067024209 -0.091435134 0.12983848
0.067651391 -0.091435134 0.12983848
0.068278573 -0.091435134 0.12983848
0.068931475 -0.091357261 0.12977494
0.069584869 -0.091279358 0.12971139
0.070212521 -0.091279358 0.12971139
0.070813723 -0.091357261 0.12977494
0.071414478 -0.091435134 0.12983848
0.072041661 -0.091435134 0.12983848
0.072641701 -0.091513023 0.12990203
0.073268652 -0.091513023 0.12990203
0.073867999 -0.091590896 0.12996557
0.074439026 -0.091746658 0.13009265
0.065745287 -0.091956347 0.12945871
0.066372231 -0.091956347 0.12945871
0.066999175 -0.091956347 0.12945871
0.067626126 -0.091956347 0.12945871
0.068278573 -0.091878608 0.12939501
0.068905748 -0.091878608 0.12939501
0.069558896 -0.091800898 0.12933129
0.070186317 -0.091800898 0.12933129
0.070813723 -0.091800898 0.12933129
0.071414478 -0.091878608 0.12939501
0.072041661 -0.091878608 0.12939501
0.072641701 -0.091956347 0.12945871
0.073241286 -0.092034042 0.12952241
0.073867999 -0.092034042 0.12952241
0.074466862 -0.092111781 0.12958613
0.06572073 -0.092477202 0.12907927
0.066347443 -0.092477202 0.12907927
0.066999175 -0.092399657 0.1290154
0.067626126 -0.092399657 0.1290154
0.068278573 -0.092322096 0.12895152
0.068905748 -0.092322096 0.12895152
0.069558896 -0.092244551 0.12888765
0.070186317 -0.092244551 0.12888765
0.070813723 -0.092244551 0.12888765
0.071441144 -0.092244551 0.12888765
0.072068557 -0.092244551 0.12888765
0.072641701 -0.092399657 0.1290154
0.073241286 -0.092477202 0.12907927
0.073867999 -0.092477202 0.12907927
0.074466862 -0.092554763 0.12914315
0.066322647 -0.09299776 0.12870017
0.066974156 -0.092920363 0.12863611
0.067600869 -0.092920363 0.12863611
0.068253078 -0.092842981 0.12857208
0.068931475 -0.092688203 0.128444
0.069584869 -0.092610806 0.12837996
0.070186317 -0.092688203 0.128444
0.070813723 -0.092688203 0.128444
0.071467817 -0.092610806 0.12837996
0.072068557 -0.092688203 0.128444
0.072641701 -0.092842981 0.12857208
0.073241286 -0.092920363 0.12863611
0.073895596 -0.092842981 0.12857208
0.074466862 -0.09299776 0.12870017
0.066949122 -0.093440741 0.12825717
0.067600869 -0.093363509 0.12819296
0.068278573 -0.093209058 0.12806454
0.068905748 -0.093209058 0.12806454
0.069584869 -0.093054622 0.12793614
0.070212521 -0.093054622 0.12793614
0.070866592 -0.092977419 0.12787196
0.071494475 -0.092977419 0.12787196
0.072095469 -0.093054622 0.12793614
0.072695971 -0.093131855 0.12800035
0.073268652 -0.093286291 0.12812877
0.073895596 -0.093286291 0.12812877
0.067600869 -0.093806654 0.1277498
0.068278573 -0.093652546 0.12762107
0.068931475 -0.093575507 0.1275567
0.069584869 -0.093498439 0.12749232
0.070212521 -0.093498439 0.12749232
0.070840165 -0.093498439 0.12749232
0.071521141 -0.093344361 0.12736361
0.072176166 -0.093267292 0.12729923
0.072723113 -0.093498439 0.12749232
0.073323391 -0.093575507 0.1275567
0.073923208 -0.093652546 0.12762107
0.068380557 -0.093788505 0.12691946
0.069060132 -0.093634725 0.12679039
0.069740646 -0.093480945 0.12666132
0.070395909 -0.093404055 0.12659676
0.070998751 -0.093480945 0.12666132
0.071681149 -0.09332718 0.12653224
0.072256871 -0.093480945 0.12666132
0.072804518 -0.093711615 0.12685493
0.073378131 -0.093865395 0.126984
0.068508044 -0.093849018 0.1261518
0.069291703 -0.093388706 0.12576361
0.070000298 -0.093158528 0.12556949
0.070631698 -0.093158528 0.12556949
0.071236648 -0.093235269 0.12563421
0.071894489 -0.093158528 0.12556949
0.072445177 -0.093388706 0.12576361
0.071103275 -0.092226982 0.12395546
0.071606711 -0.092609778 0.1242798
0.072321162 -0.092380106 0.12408519
0.070960984 -0.091225013 0.12227044
0.072135366 -0.091530591 0.12253056
0.071194664 -0.090991601 0.12123106
0.071863025 -0.090915382 0.12116589
0.072505429 -0.090915382 0.12116589
0.070706874 -0.090989307 0.12038481
0.071350448 -0.090989307 0.12038481
0.072046429 -0.090837181 0.12025408
0.072690465 -0.090837181 0.12025408
0.073334508 -0.090837181 0.12025408
0.07019078 -0.09106493 0.1196021
0.070835523 -0.09106493 0.1196021
0.071506232 -0.090989038 0.11953658
0.072125018 -0.09106493 0.1196021
0.072769761 -0.09106493 0.1196021
0.073414512 -0.09106493 0.1196021
0.074086159 -0.090989038 0.11953658
0.069226645 -0.090536371 0.11829217
0.069798648 -0.090763554 0.11848927
0.070445739 -0.090763554 0.11848927
0.071067095 -0.090839282 0.11855495
0.071687981 -0.090915009 0.11862066
0.072282217 -0.091066465 0.11875202
0.072954789 -0.090990737 0.11868635
0.073601179 -0.090990737 0.11868635
0.074247569 -0.090990737 0.11868635
0.069326751 -0.090692177 0.1175707
0.06997548 -0.090692177 0.1175707
0.070598722 -0.090767741 0.11763655
0.071221478 -0.09084329 0.11770241
0.071843773 -0.090918869 0.11776827
0.072465606 -0.090994418 0.11783411
0.07306052 -0.091145545 0.11796583
0.07376118 -0.090994418 0.11783411
0.074408978 -0.090994418 0.11783411
0.069099523 -0.089869142 0.11598955
0.069602057 -0.090321541 0.11638571
0.070177577 -0.090547711 0.11658378
0.070751697 -0.09077391 0.11678185
0.071350127 -0.090924695 0.11691388
0.071999565 -0.090924695 0.11691388
0.072596595 -0.091075495 0.11704594
0.073219113 -0.091150895 0.11711198
0.073867843 -0.091150895 0.11711198
0.074543484 -0.091075495 0.11704594
0.068569608 -0.089954525 0.11519708
0.069173895 -0.090104997 0.11532946
0.06977725 -0.090255469 0.11546184
0.070329152 -0.090556368 0.11572659
0.070879176 -0.090857297 0.11599134
0.071504503 -0.090932548 0.11605754
0.072129384 -0.091007754 0.11612374
0.072727591 -0.091158226 0.11625612
0.073377714 -0.091158226 0.11625612
0.074001186 -0.091233462 0.11632229
0.074651085 -0.091233462 0.11632229
0.069273077 -0.090266749 0.114602
0.069827311 -0.090567023 0.11486742
0.070430197 -0.090717167 0.11500014
0.071032159 -0.090867266 0.11513284
0.071658894 -0.090942353 0.11519919
0.072285175 -0.09101741 0.11526555
0.072832383 -0.091317669 0.11553097
0.07345701 -0.091392756 0.11559734
0.074107848 -0.091392756 0.11559734
0.07473179 -0.091467813 0.11566368
0.069421835 -0.090280041 0.11374018
0.070002504 -0.090504766 0.11393975
0.070581771 -0.090729445 0.1141393
0.07121063 -0.090804338 0.11420581
0.071787544 -0.091029063 0.11440539
0.072389022 -0.091178864 0.11453845
0.072989583 -0.091328636 0.11467147
0.073615611 -0.091403559 0.11473799
0.074267857 -0.091403559 0.11473799
0.068377912 -0.089921653 0.11254291
0.068913437 -0.090295345 0.11287637
0.069545805 -0.090370074 0.11294305
0.07015267 -0.090519547 0.11307642
0.070733346 -0.090743735 0.11327648
0.071389101 -0.090743735 0.11327648
0.071941927 -0.091042683 0.11354323
0.072544813 -0.091192141 0.11367661
0.073172972 -0.09126687 0.11374329
0.073747776 -0.091491088 0.11394337
0.074401192 -0.091491088 0.11394337
0.067912303 -0.089790627 0.11154261
0.068499535 -0.090014324 0.11174315
0.069036238 -0.090387166 0.1120774
0.069669768 -0.090461731 0.11214426
0.07027781 -0.090610877 0.11227798
0.070884913 -0.090760022 0.11241169
0.071516581 -0.090834588 0.11247854
0.072096311 -0.091058284 0.11267908
0.072700605 -0.09120743 0.11281279
0.07330396 -0.091356561 0.11294651
0.073932804 -0.091431141 0.11301337
0.074561194 -0.091505706 0.1130802
0.068032756 -0.089885443 0.11074068
0.068572506 -0.090257466 0.11107577
0.069183588 -0.090406269 0.11120979
0.069768943 -0.090629473 0.11141086
0.070402943 -0.09070389 0.11147788
0.071036488 -0.090778291 0.11154489
0.071669556 -0.090852663 0.1116119
0.072250687 -0.091075897 0.11181296
0.072830424 -0.091299102 0.11201403
0.073461153 -0.091373518 0.11208105
0.074091405 -0.09144792 0.11214805
0.068177305 -0.089907676 0.10986991
0.068742782 -0.090204641 0.11013864
0.069330946 -0.090427339 0.11034019
0.069917709 -0.090650052 0.11054173
0.070553109 -0.090724304 0.11060894
0.071188062 -0.090798512 0.11067611
0.071797036 -0.090947002 0.11081047
0.072379336 -0.09116973 0.11101204
0.072986215 -0.091318175 0.11114639
0.074302875 -0.091318175 0.11114639
0.068273671 -0.090080038 0.10913184
0.068913057 -0.090154126 0.10919921
0.069527417 -0.090302259 0.1093339
0.070091262 -0.090598539 0.10960329
0.070728302 -0.090672627 0.10967065
0.071364895 -0.090746686 0.10973799
0.071975507 -0.090894833 0.1098727
0.072533719 -0.091191128 0.11014211
0.07319393 -0.091191128 0.11014211
0.073854133 -0.091191128 0.11014211
0.074487902 -0.091265187 0.11020944
0.068490483 -0.089884207 0.10805489
0.069083333 -0.090105921 0.10825744
0.06969934 -0.090253726 0.10839248
0.070264816 -0.09054935 0.10866253
0.070903495 -0.090623289 0.10873005
0.071516462 -0.090771094 0.10886508
0.072153986 -0.090844989 0.1089326
0.072765291 -0.090992808 0.10906763
0.07337568 -0.091140628 0.10920265
0.074037522 -0.091140628 0.10920265
0.068610936 -0.089986309 0.10724568
0.069253616 -0.09006004 0.10731336
0.06984669 -0.090281278 0.10751642
0.070487961 -0.090355009 0.10758407
0.071078695 -0.090576246 0.10778713
0.071718559 -0.090649977 0.10785481
0.072332457 -0.090797469 0.10799018
0.072945409 -0.090944946 0.10812555
0.07360936 -0.090944946 0.10812555
0.074273311 -0.090944946 0.10812555
0.068182513 -0.089722201 0.10609561
0.06873139 -0.090090081 0.10643482
0.069375239 -0.090163648 0.10650267
0.070018604 -0.09023723 0.10657053
0.070661515 -0.090310797 0.10663836
0.071278915 -0.090457946 0.10677405
0.071895391 -0.090605095 0.10690975
0.072536424 -0.090678662 0.10697758
0.073202714 -0.090678662 0.10697758
0.07384304 -0.090752259 0.10704544
0.074509099 -0.090752259 0.10704544
0.067654915 -0.089755028 0.10521422
0.06827794 -0.08990185 0.10535026
0.068875939 -0.090122074 0.10555428
0.069521189 -0.090195507 0.10562231
0.070165962 -0.09026891 0.1056903
0.070835069 -0.09026891 0.1056903
0.071404055 -0.090562537 0.10596237
0.072046965 -0.09063594 0.10603037
0.072689399 -0.090709358 0.1060984
0.07335709 -0.090709358 0.1060984
0.074024789 -0.090709358 0.1060984
0.074692488 -0.090709358 0.1060984
0.067773022 -0.089863107 0.10439906
0.068373367 -0.090082839 0.10460359
0.069020487 -0.090156063 0.10467175
0.069667138 -0.090229318 0.10473993
0.070337877 -0.090229318 0.10473993
0.070983827 -0.090302557 0.10480811
0.071579248 -0.090522304 0.10501266
0.072249055 -0.090522304 0.10501266
0.072893374 -0.090595543 0.10508083
0.073537201 -0.090668797 0.10514902
0.074206538 -0.090668797 0.10514902
0.067820273 -0.09019205 0.10378726
0.068492651 -0.09019205 0.10378726
0.069140941 -0.090265125 0.10385559
0.069788761 -0.090338215 0.10392395
0.070460677 -0.090338215 0.10392395
0.071157381 -0.090265125 0.10385559
0.071779475 -0.090411291 0.10399228
0.072451152 -0.090411291 0.10399228
0.073122837 -0.090411291 0.10399228
0.073743045 -0.090557456 0.10412897
0.074492149 -0.090338215 0.10392395
0.06793838 -0.090302944 0.10296927
0.068611935 -0.090302944 0.10296927
0.069261394 -0.090375856 0.10303777
0.069934718 -0.090375856 0.10303777
0.070632592 -0.090302944 0.10296927
0.071330935 -0.090230018 0.10290076
0.071979687 -0.090302944 0.10296927
0.072627984 -0.090375856 0.10303777
0.073301308 -0.090375856 0.10303777
0.074000344 -0.090302944 0.10296927
0.067358382 -0.090488225 0.1022183
0.068032876 -0.090488225 0.1022183
0.068707362 -0.090488225 0.1022183
0.069381848 -0.090488225 0.1022183
0.070056342 -0.090488225 0.1022183
0.070755392 -0.090415463 0.10214961
0.071454905 -0.09034273 0.10208096
0.072129861 -0.09034273 0.10208096
0.072804816 -0.09034273 0.10208096
0.073479779 -0.09034273 0.10208096
0.074180469 -0.090269968 0.10201228
0.067428552 -0.090747401 0.10153484
0.068150982 -0.090602249 0.10139717
0.068850502 -0.090529665 0.10132831
0.069502302 -0.090602249 0.10139717
0.070202291 -0.090529665 0.10132831
0.070902742 -0.090457097 0.10125948
0.071603663 -0.090384498 0.10119063
0.072280027 -0.090384498 0.10119063
0.072956391 -0.090384498 0.10119063
0.073632762 -0.090384498 0.10119063
0.074309118 -0.090384498 0.10119063
0.07501144 -0.09031193 0.10112181
0.067568876 -0.090790361 0.10064338
0.068245478 -0.090790361 0.10064338
0.068922073 -0.090790361 0.10064338
0.06964685 -0.090645522 0.10050537
0.070323914 -0.090645522 0.10050537
0.071025535 -0.090573102 0.10043637
0.071727633 -0.090500683 0.10036735
0.072430186 -0.090428278 0.10029835
0.0730827 -0.090500683 0.10036735
0.073760234 -0.090500683 0.10036735
0.074437767 -0.090500683 0.10036735
0.075141266 -0.090428278 0.10029835
0.068339966 -0.09097977 0.099888265
0.0690175 -0.09097977 0.099888265
0.069767304 -0.090763032 0.099680766
0.070396893 -0.090907529 0.099819094
0.071148336 -0.090690777 0.099611565
0.071851596 -0.090618521 0.099542424
0.072555333 -0.090546265 0.099473238
0.07320901 -0.090618521 0.099542424
0.073862225 -0.090690777 0.099611565
0.074592151 -0.090546265 0.099473238
0.075271092 -0.090546265 0.099473238
0.068434462 -0.09117052 0.099131823
0.069136783 -0.091098443 0.099062502
0.069815487 -0.091098443 0.099062502
0.07049419 -0.091098443 0.099062502
0.071222015 -0.090954274 0.098923817
0.071901187 -0.090954274 0.098923817
0.072630413 -0.09081009 0.098785147
0.073259532 -0.090954274 0.098923817
0.073938712 -0.090954274 0.098923817
0.074669339 -0.09081009 0.098785147
0.075348981 -0.09081009 0.098785147
0.068576187 -0.09121877 0.098235071
0.06925606 -0.09121877 0.098235071
0.06993594 -0.09121877 0.098235071
0.070640147 -0.091146842 0.098165557
0.071344808 -0.091074929 0.098096073
0.07202515 -0.091074929 0.098096073
0.072705492 -0.091074929 0.098096073
0.073385842 -0.091074929 0.098096073
0.074040696 -0.091146842 0.098165557
0.074746527 -0.091074929 0.098096073
0.068788789 -0.091053739 0.097127318
0.069470771 -0.091053739 0.097127318
0.07015276 -0.091053739 0.097127318
0.070834741 -0.091053739 0.097127318
0.071516722 -0.091053739 0.097127318
0.072198704 -0.091053739 0.097127318
0.072830632 -0.091197252 0.097266644
0.073512152 -0.091197252 0.097266644
0.074168175 -0.091268986 0.097336307
0.074849449 -0.091268986 0.097336307
0.069637768 -0.091034859 0.096156254
0.070345484 -0.090963259 0.096086398
0.071005017 -0.091034859 0.096156254
0.07166408 -0.09110643 0.096226066
0.072322682 -0.091178015 0.096295893
0.073005833 -0.091178015 0.096295893
0.073688991 -0.091178015 0.096295893
0.074321151 -0.091321185 0.096435577
0.069119513 -0.091018274 0.095182836
0.069804773 -0.091018274 0.095182836
0.070465937 -0.091089696 0.095252857
0.071126647 -0.091161117 0.095322847
0.07178688 -0.091232553 0.095392853
0.072471432 -0.091232553 0.095392853
0.073105939 -0.091375396 0.095532864
0.073790029 -0.091375396 0.095532864
0.074474126 -0.091375396 0.095532864
0.06930849 -0.090932786 0.094136983
0.06997177 -0.091004029 0.094207138
0.070658669 -0.091004029 0.094207138
0.071272597 -0.091217816 0.094417647
0.071909674 -0.091360331 0.094557986
0.072545819 -0.091502815 0.094698295
0.073281132 -0.091360331 0.094557986
0.073916346 -0.091502815 0.094698295
0.074601613 -0.091502815 0.094698295
0.068761684 -0.090992108 0.093229115
0.069450229 -0.090992108 0.093229115
0.070138767 -0.090992108 0.093229115
0.07080321 -0.091063201 0.093299463
0.071442872 -0.091205388 0.09344013
0.072057031 -0.091418669 0.093651101
0.072719373 -0.091489732 0.093721434
0.073406272 -0.091489732 0.093721434
0.074093178 -0.091489732 0.093721434
0.074780084 -0.091489732 0.093721434
0.068972178 -0.090840638 0.092107788
0.069662832 -0.090840638 0.092107788
0.070353478 -0.090840638 0.092107788
0.071020029 -0.090911582 0.092178285
0.071637474 -0.091124356 0.092389777
0.07225351 -0.091337115 0.092601255
0.072942518 -0.091337115 0.092601255
0.073631525 -0.091337115 0.092601255
0.07427001 -0.091478974 0.092742249
0.069159284 -0.090762943 0.091054142
0.069851808 -0.090762943 0.091054142
0.070544325 -0.090762943 0.091054142
0.071164578 -0.09097521 0.091266125
0.071856402 -0.09097521 0.091266125
0.072449982 -0.091258273 0.091548771
0.07314086 -0.091258273 0.091548771
0.073806718 -0.091329008 0.091619417
0.074497372 -0.091329008 0.091619417
0.069276229 -0.090899646 0.090210304
0.069969922 -0.090899646 0.090210304
0.070663616 -0.090899646 0.090210304
0.071333215 -0.090970248 0.090281144
0.072026677 -0.090970248 0.090281144
0.072646454 -0.091182038 0.090493605
0.073339209 -0.091182038 0.090493605
0.073981911 -0.091323212 0.09063527
0.074674204 -0.091323212 0.09063527
0.070088036 -0.091038018 0.089364842
0.070806749 -0.090967596 0.089293852
0.071453668 -0.091108456 0.089435846
0.072148301 -0.091108456 0.089435846
0.072818369 -0.091178879 0.089506805
0.073512763 -0.091178879 0.089506805
0.074157104 -0.09131974 0.089648798
0.070371501 -0.090686202 0.088019595
0.07102146 -0.090826735 0.088161916
0.071694583 -0.090896994 0.088233069
0.072391555 -0.090896994 0.088233069
0.073063962 -0.090967268 0.088304237
0.073735908 -0.091037527 0.088375375
0.070678599 -0.090268269 0.086599052
0.071331598 -0.090408474 0.086741701
0.071959578 -0.090618744 0.086955667
0.072659135 -0.090618744 0.086955667
0.073309556 -0.09075895 0.087098315
0.073959053 -0.090899155 0.087240964
0.07030531 -0.089784712 0.085102722
0.070962064 -0.089924589 0.085245684
0.07159403 -0.090134367 0.085460156
0.072224572 -0.090344176 0.085674644
0.072902381 -0.090414107 0.085746124
0.073579714 -0.090484008 0.085817605
0.071174666 -0.089794159 0.084103331
0.07180874 -0.090003446 0.08431828
0.072465487 -0.09014298 0.0844616
0.073096983 -0.090352282 0.084676549
0.072166584 -0.089457914 0.082742527
0.072778672 -0.089736298 0.083029792
0.073413208 -0.089945123 0.083245263
0 0 0 1 0 0 0 1 0 0 0 1 0 0 0 0 0 527 1 0 0
