ply
format ascii 1.0
comment PCL generated
element vertex 530
property float x
property float y
property float z
element camera 1
property float view_px
property float view_py
property float view_pz
property float x_axisx
property float x_axisy
property float x_axisz
property float y_axisx
property float y_axisy
property float y_axisz
property float z_axisx
property float z_axisy
property float z_axisz
property float focal
property float scalex
property float scaley
property float centerx
property float centery
property int viewportx
property int viewporty
property float k1
property float k2
end_header
0.069714688 -0.088666752 0.13161692
0.070343509 -0.088666752 0.13161692
0.070972323 -0.088666752 0.13161692
0.068406053 -0.089268491 0.13129804
0.069034405 -0.089268491 0.13129804
0.069662757 -0.089268491 0.13129804
0.070291109 -0.089268491 0.13129804
0.070945889 -0.089189947 0.13123517
0.071547814 -0.089268491 0.13129804
0.072149262 -0.089347035 0.13136092
0.067074262 -0.089947909 0.13104284
0.067727178 -0.089869559 0.13097982
0.068355061 -0.089869559 0.13097982
0.069034405 -0.089712799 0.13085373
0.069662757 -0.089712799 0.13085373
0.070291109 -0.089712799 0.13085373
0.070893019 -0.089791179 0.13091677
0.071494475 -0.089869559 0.13097982
0.072122365 -0.089869559 0.13097982
0.072723113 -0.089947909 0.13104284
0.073350765 -0.089947909 0.13104284
0.067049235 -0.090469956 0.13066225
0.067676648 -0.090469956 0.13066225
0.068329573 -0.090391725 0.13059902
0.068982944 -0.090313539 0.13053584
0.069610827 -0.090313539 0.13053584
0.070238717 -0.090313539 0.13053584
0.070866592 -0.090313539 0.13053584
0.071494475 -0.090313539 0.13053584
0.072095469 -0.090391725 0.13059902
0.072695971 -0.090469956 0.13066225
0.073296025 -0.090548158 0.13072546
0.073923208 -0.090548158 0.13072546
0.066397026 -0.090991646 0.13028197
0.067024209 -0.090991646 0.13028197
0.067676648 -0.090913609 0.1302186
0.068304069 -0.090913609 0.1302186
0.068957217 -0.090835541 0.13015521
0.069584869 -0.090835541 0.13015521
0.070212521 -0.090835541 0.13015521
0.070840165 -0.090835541 0.13015521
0.071467817 -0.090835541 0.13015521
0.072068557 -0.090913609 0.1302186
0.072668836 -0.090991646 0.13028197
0.073296025 -0.090991646 0.13028197
0.073895596 -0.091069698 0.13034534
0.07452254 -0.091069698 0.13034534
0.066372231 -0.091513023 0.12990203
0.066999175 -0.091513023 0.12990203
0.067651391 -0.091435134 0.12983848
0.068278573 -0.091435134 0.12983848
0.068931475 -0.091357261 0.12977494
0.069558896 -0.091357261 0.12977494
0.070186317 -0.091357261 0.12977494
0.070813723 -0.091357261 0.12977494
0.071414478 -0.091435134 0.12983848
0.072041661 -0.091435134 0.12983848
0.072668836 -0.091435134 0.12983848
0.073268652 -0.091513023 0.12990203
0.073895596 -0.091513023 0.12990203
0.074494705 -0.091590896 0.12996557
0.06572073 -0.092034042 0.12952241
0.066322647 -0.092111781 0.12958613
0.066974156 -0.092034042 0.12952241
0.067600869 -0.092034042 0.12952241
0.068253078 -0.091956347 0.12945871
0.068905748 -0.091878608 0.12939501
0.069532938 -0.091878608 0.12939501
0.070186317 -0.091800898 0.12933129
0.070813723 -0.091800898 0.12933129
0.071414478 -0.091878608 0.12939501
0.072041661 -0.091878608 0.12939501
0.072641701 -0.091956347 0.12945871
0.073268652 -0.091956347 0.12945871
0.073895596 -0.091956347 0.12945871
0.074494705 -0.092034042 0.12952241
0.075121418 -0.092034042 0.12952241
0.066347443 -0.092477202 0.12907927
0.066999175 -0.092399657 0.1290154
0.067626126 -0.092399657 0.1290154
0.068253078 -0.092399657 0.1290154
0.068905748 -0.092322096 0.12895152
0.069558896 -0.092244551 0.12888765
0.070186317 -0.092244551 0.12888765
0.070813723 -0.092244551 0.12888765
0.071441144 -0.092244551 0.12888765
0.072041661 -0.092322096 0.12895152
0.072641701 -0.092399657 0.1290154
0.073296025 -0.092322096 0.12895152
0.073895596 -0.092399657 0.1290154
0.07452254 -0.092399657 0.1290154
0.075121418 -0.092477202 0.12907927
0.066347443 -0.092920363 0.12863611
0.066974156 -0.092920363 0.12863611
0.067600869 -0.092920363 0.12863611
0.068227582 -0.092920363 0.12863611
0.068905748 -0.092765585 0.12850803
0.069558896 -0.092688203 0.128444
0.070186317 -0.092688203 0.128444
0.070813723 -0.092688203 0.128444
0.071441144 -0.092688203 0.128444
0.072068557 -0.092688203 0.128444
0.072695971 -0.092688203 0.128444
0.073268652 -0.092842981 0.12857208
0.073895596 -0.092842981 0.12857208
0.07452254 -0.092842981 0.12857208
0.066999175 -0.093286291 0.12812877
0.067651391 -0.093209058 0.12806454
0.068304069 -0.093131855 0.12800035
0.068931475 -0.093131855 0.12800035
0.069532938 -0.093209058 0.12806454
0.070238717 -0.092977419 0.12787196
0.070840165 -0.093054622 0.12793614
0.071494475 -0.092977419 0.12787196
0.072095469 -0.093054622 0.12793614
0.072695971 -0.093131855 0.12800035
0.073323391 -0.093131855 0.12800035
0.073950805 -0.093131855 0.12800035
0.07452254 -0.093286291 0.12812877
0.067024209 -0.093652546 0.12762107
0.067651391 -0.093652546 0.12762107
0.068304069 -0.093575507 0.1275567
0.068931475 -0.093575507 0.1275567
0.069584869 -0.093498439 0.12749232
0.070212521 -0.093498439 0.12749232
0.070866592 -0.0934214 0.12742797
0.071494475 -0.0934214 0.12742797
0.072122365 -0.0934214 0.12742797
0.072723113 -0.093498439 0.12749232
0.073323391 -0.093575507 0.1275567
0.073950805 -0.093575507 0.1275567
0.067149349 -0.093711615 0.12685493
0.067802958 -0.093634725 0.12679039
0.068482541 -0.093480945 0.12666132
0.069137327 -0.093404055 0.12659676
0.069818549 -0.093250275 0.12646769
0.070474498 -0.0931734 0.12640318
0.071078055 -0.093250275 0.12646769
0.071707815 -0.093250275 0.12646769
0.072256871 -0.093480945 0.12666132
0.072858788 -0.093557835 0.12672584
0.07343287 -0.093711615 0.12685493
0.073978417 -0.093942255 0.12704851
0.067499734 -0.093081817 0.12550482
0.068813995 -0.09292838 0.1253754
0.06942036 -0.093005091 0.12544011
0.070052229 -0.093005091 0.12544011
0.070657894 -0.093081817 0.12550482
0.071289517 -0.093081817 0.12550482
0.071841151 -0.093311965 0.12569889
0.072445177 -0.093388706 0.12576361
0.072940193 -0.093772322 0.1260871
0.07348761 -0.09400247 0.1262812
0.069119945 -0.092456669 0.12415007
0.069754846 -0.092456669 0.12415007
0.070363797 -0.092533216 0.12421492
0.070867486 -0.092915997 0.12453926
0.071580283 -0.092686325 0.12434466
0.072107822 -0.092992559 0.12460414
0.073103003 -0.093758106 0.12525277
0.071601048 -0.091677606 0.12181784
0.07221467 -0.091753826 0.12188303
0.07068114 -0.091065377 0.12045018
0.071220621 -0.091369629 0.12071164
0.069520764 -0.091140836 0.11966763
0.07019078 -0.09106493 0.1196021
0.070809789 -0.091140836 0.11966763
0.071454301 -0.091140836 0.11966763
0.072125018 -0.09106493 0.1196021
0.072849058 -0.09083724 0.11940552
0.07344117 -0.090989038 0.11953658
0.069076478 -0.090990737 0.11868635
0.069722869 -0.090990737 0.11868635
0.070343763 -0.091066465 0.11875202
0.071015634 -0.090990737 0.11868635
0.071636058 -0.091066465 0.11875202
0.072256014 -0.091142192 0.11881775
0.072928362 -0.091066465 0.11875202
0.069251671 -0.090918869 0.11776827
0.069899701 -0.090918869 0.11776827
0.07054773 -0.090918869 0.11776827
0.071195744 -0.090918869 0.11776827
0.071817815 -0.090994418 0.11783411
0.072465606 -0.090994418 0.11783411
0.073139817 -0.090918869 0.11776827
0.073814519 -0.09084329 0.11770241
0.074435875 -0.090918869 0.11776827
0.069501951 -0.090623111 0.11664979
0.070177577 -0.090547711 0.11658378
0.070777193 -0.09069851 0.11671583
0.071350127 -0.090924695 0.11691388
0.071973592 -0.09100011 0.11697993
0.072622791 -0.09100011 0.11697993
0.073271982 -0.09100011 0.11697993
0.073921181 -0.09100011 0.11697993
0.069099523 -0.090330675 0.11552802
0.069702171 -0.090481147 0.1156604
0.070329152 -0.090556368 0.11572659
0.070904672 -0.090782076 0.11592516
0.071504503 -0.090932548 0.11605754
0.072129384 -0.091007754 0.11612374
0.072779991 -0.091007754 0.11612374
0.073377714 -0.091158226 0.11625612
0.074027851 -0.091158226 0.11625612
0.068426557 -0.088840529 0.11334124
0.068815202 -0.089666218 0.11407115
0.069273077 -0.090266749 0.114602
0.069877364 -0.090416893 0.11473471
0.070455462 -0.090642095 0.11493376
0.071057647 -0.090792209 0.11506648
0.071658894 -0.090942353 0.11519919
0.072285175 -0.09101741 0.11526555
0.072884783 -0.091167539 0.11539826
0.073509879 -0.091242626 0.11546463
0.074161187 -0.091242626 0.11546463
0.068523854 -0.089006752 0.11260931
0.069471426 -0.09013024 0.11360712
0.07002753 -0.090429857 0.11387321
0.070607036 -0.090654537 0.11407277
0.071236119 -0.090729445 0.1141393
0.071839005 -0.090879261 0.11427234
0.072414994 -0.091103956 0.1144719
0.073015779 -0.091253743 0.11460495
0.07366848 -0.091253743 0.11460495
0.07429453 -0.091328636 0.11467147
0.074947007 -0.091328636 0.11467147
0.068105035 -0.088725895 0.11147593
0.068572506 -0.089323789 0.11200944
0.069060795 -0.089846939 0.11247624
0.06964498 -0.090071127 0.11267629
0.070177697 -0.090444818 0.11300975
0.070783868 -0.090594262 0.1131431
0.071389101 -0.090743735 0.11327648
0.071967654 -0.090967953 0.11347656
0.072544813 -0.091192141 0.11367661
0.073172972 -0.09126687 0.11374329
0.073747776 -0.091491088 0.11394337
0.068129122 -0.089119509 0.11094093
0.068621159 -0.089641482 0.11140889
0.069208153 -0.089865178 0.11160944
0.069744147 -0.09023805 0.11194372
0.070352897 -0.090387166 0.1120774
0.070935436 -0.090610877 0.11227798
0.071491078 -0.090909168 0.1125454
0.072096311 -0.091058284 0.11267908
0.072700605 -0.09120743 0.11281279
0.07330396 -0.091356561 0.11294651
0.073932804 -0.091431141 0.11301337
0.074561194 -0.091505706 0.1130802
0.068177305 -0.08943902 0.11033857
0.068718463 -0.089811027 0.11067365
0.069257274 -0.090183049 0.11100873
0.069843322 -0.090406269 0.11120979
0.070402943 -0.09070389 0.11147788
0.071036488 -0.090778291 0.11154489
0.071618564 -0.091001481 0.11174594
0.072199225 -0.0912247 0.11194701
0.072804458 -0.091373518 0.11208105
0.073461153 -0.091373518 0.11208105
0.074091405 -0.09144792 0.11214805
0.067087971 -0.0891653 0.10919808
0.067681521 -0.089388013 0.10939963
0.068249576 -0.089684978 0.10966836
0.068791434 -0.090056151 0.11000428
0.069380067 -0.090278864 0.11020581
0.069942497 -0.090575814 0.11047457
0.070578143 -0.090650052 0.11054173
0.07116279 -0.090872765 0.1107433
0.071746044 -0.091095477 0.11094485
0.072353609 -0.091243953 0.11107922
0.072960243 -0.091392428 0.11121358
0.073592149 -0.091466665 0.11128075
0.074250005 -0.091466665 0.11128075
0.066586569 -0.089117095 0.10825631
0.067158841 -0.089413404 0.10852569
0.067776948 -0.089561537 0.1086604
0.068345942 -0.089857832 0.10892981
0.068888739 -0.090228185 0.10926655
0.06950286 -0.090376332 0.10940126
0.070091262 -0.090598539 0.10960329
0.070703283 -0.090746686 0.10973799
0.071314365 -0.090894833 0.1098727
0.071899027 -0.091117054 0.11007473
0.072507992 -0.091265187 0.11020944
0.073116034 -0.091413334 0.11034414
0.066680118 -0.089292958 0.1075148
0.067229711 -0.089662492 0.10785235
0.068418212 -0.090105921 0.10825744
0.069034688 -0.090253726 0.10839248
0.069625661 -0.09047547 0.10859503
0.070240021 -0.090623289 0.10873005
0.070878476 -0.090697169 0.10879757
0.071491197 -0.090844989 0.1089326
0.072077498 -0.091066688 0.10913514
0.072662368 -0.091288432 0.10933769
0.073297784 -0.091362327 0.1094052
0.073958926 -0.091362327 0.1094052
0.067324199 -0.089838833 0.10711032
0.068538666 -0.090207532 0.10744873
0.069156311 -0.090355009 0.10758407
0.069773018 -0.090502486 0.10771945
0.070413575 -0.090576246 0.10778713
0.071028642 -0.090723708 0.10792249
0.071668029 -0.090797469 0.10799018
0.072255969 -0.091018677 0.1081932
0.072868221 -0.091166154 0.10832858
0.073505498 -0.091239914 0.10839626
0.068039373 -0.090163648 0.10650267
0.068659119 -0.090310797 0.10663836
0.069326587 -0.090310797 0.10663836
0.069920376 -0.090531513 0.10684189
0.070587136 -0.090531513 0.10684189
0.071203835 -0.090678662 0.10697758
0.071819603 -0.090825826 0.10711327
0.072408937 -0.091046557 0.10731682
0.073048331 -0.091120124 0.10738467
0.073687255 -0.091193691 0.10745251
0.067536801 -0.090122074 0.10555428
0.068158656 -0.09026891 0.1056903
0.068803668 -0.090342298 0.10575831
0.069472544 -0.090342298 0.10575831
0.070092291 -0.090489119 0.10589434
0.070735887 -0.090562537 0.10596237
0.071379028 -0.09063594 0.10603037
0.0720217 -0.090709358 0.1060984
0.072612911 -0.090929583 0.10630241
0.07389497 -0.091076404 0.10643844
0.067678541 -0.090156063 0.10467175
0.068301797 -0.090302557 0.10480811
0.068948209 -0.090375811 0.10487629
0.069569834 -0.090522304 0.10501266
0.070288762 -0.090375811 0.10487629
0.070959032 -0.090375811 0.10487629
0.071579248 -0.090522304 0.10501266
0.072198533 -0.090668797 0.10514902
0.07286787 -0.090668797 0.10514902
0.073485747 -0.090815261 0.10528535
0.067843899 -0.09011896 0.10371891
0.068492651 -0.09019205 0.10378726
0.069116846 -0.090338215 0.10392395
0.069788761 -0.090338215 0.10392395
0.070460677 -0.090338215 0.10392395
0.071132585 -0.090338215 0.10392395
0.071804494 -0.090338215 0.10392395
0.072451152 -0.090411291 0.10399228
0.073046349 -0.090630502 0.10419729
0.073691584 -0.090703592 0.10426566
0.068659648 -0.090157107 0.10283226
0.069309577 -0.090230018 0.10290076
0.069983363 -0.090230018 0.10290076
0.070681706 -0.090157107 0.10283226
0.071330935 -0.090230018 0.10290076
0.071979687 -0.090302944 0.10296927
0.072653241 -0.090302944 0.10296927
0.073326796 -0.090302944 0.10296927
0.07394889 -0.090448752 0.10310628
0.068850502 -0.090051726 0.10180625
0.069502302 -0.090124488 0.10187493
0.070177965 -0.090124488 0.10187493
0.070853621 -0.090124488 0.10187493
0.071529284 -0.090124488 0.10187493
0.072154887 -0.090269968 0.10201228
0.072830088 -0.090269968 0.10201228
0.073479779 -0.09034273 0.10208096
0.074180469 -0.090269968 0.10201228
0.068969786 -0.090166762 0.10098413
0.06964685 -0.090166762 0.10098413
0.07034824 -0.090094179 0.1009153
0.071000978 -0.090166762 0.10098413
0.071628459 -0.09031193 0.10112181
0.072305053 -0.09031193 0.10112181
0.072981648 -0.09031193 0.10112181
0.07365825 -0.09031193 0.10112181
0.074334845 -0.09031193 0.10112181
0.069112927 -0.090211019 0.10009132
0.069791399 -0.090211019 0.10009132
0.070469871 -0.090211019 0.10009132
0.071123779 -0.090283453 0.10016035
0.071802013 -0.090283453 0.10016035
0.072480246 -0.090283453 0.10016035
0.073107958 -0.090428278 0.10029835
0.07378573 -0.090428278 0.10029835
0.074463494 -0.090428278 0.10029835
0.068576187 -0.090257287 0.099196553
0.069184497 -0.090474024 0.099404067
0.06986367 -0.090474024 0.099404067
0.070542842 -0.090474024 0.099404067
0.071271136 -0.090329513 0.099265724
0.071901187 -0.090474024 0.099404067
0.07258036 -0.090474024 0.099404067
0.073234275 -0.090546265 0.099473238
0.073887713 -0.090618521 0.099542424
0.074592151 -0.090546265 0.099473238
0.068623438 -0.09059386 0.098577142
0.069303781 -0.09059386 0.098577142
0.069984123 -0.09059386 0.098577142
0.070664465 -0.09059386 0.098577142
0.071344808 -0.09059386 0.098577142
0.071975566 -0.090738028 0.098715812
0.072680473 -0.090665936 0.098646462
0.07333532 -0.090738028 0.098715812
0.074015193 -0.090738028 0.098715812
0.074695066 -0.090738028 0.098715812
0.068741545 -0.090715349 0.097748548
0.069423057 -0.090715349 0.097748548
0.070104577 -0.090715349 0.097748548
0.070786089 -0.090715349 0.097748548
0.071443051 -0.090787247 0.097818047
0.072124325 -0.090787247 0.097818047
0.072805606 -0.090787247 0.097818047
0.073461629 -0.09085916 0.097887546
0.07414268 -0.09085916 0.097887546
0.074823722 -0.09085916 0.097887546
0.068859667 -0.090838462 0.0969183
0.069542348 -0.090838462 0.0969183
0.07022503 -0.090838462 0.0969183
0.070907719 -0.090838462 0.0969183
0.071590409 -0.090838462 0.0969183
0.072223507 -0.090981975 0.097057641
0.072905719 -0.090981975 0.097057641
0.073587939 -0.090981975 0.097057641
0.074270159 -0.090981975 0.097057641
0.074952371 -0.090981975 0.097057641
0.068293914 -0.090963259 0.096086398
0.068977773 -0.090963259 0.096086398
0.069661632 -0.090963259 0.096086398
0.070369571 -0.090891674 0.096016586
0.071029343 -0.090963259 0.096086398
0.071688637 -0.091034859 0.096156254
0.07234747 -0.09110643 0.096226066
0.073030859 -0.09110643 0.096226066
0.073739506 -0.091034859 0.096156254
0.074397638 -0.09110643 0.096226066
0.069095887 -0.091089696 0.095252857
0.069804773 -0.091018274 0.095182836
0.070490032 -0.091018274 0.095182836
0.0711753 -0.091018274 0.095182836
0.071811438 -0.091161117 0.095322847
0.072496235 -0.091161117 0.095322847
0.073181026 -0.091161117 0.095322847
0.073865823 -0.091161117 0.095322847
0.074550621 -0.091161117 0.095322847
0.06857457 -0.091075301 0.094277307
0.069261245 -0.091075301 0.094277307
0.069947906 -0.091075301 0.094277307
0.070658669 -0.091004029 0.094207138
0.071345575 -0.091004029 0.094207138
0.071958795 -0.091217816 0.094417647
0.072620198 -0.091289058 0.094487816
0.073331185 -0.091217816 0.094417647
0.074017391 -0.091217816 0.094417647
0.074678101 -0.091289058 0.094487816
0.068714909 -0.091134295 0.093369782
0.069426604 -0.091063201 0.093299463
0.070138767 -0.090992108 0.093229115
0.070827305 -0.090992108 0.093229115
0.071491517 -0.091063201 0.093299463
0.07213071 -0.091205388 0.09344013
0.07281854 -0.091205388 0.09344013
0.073506378 -0.091205388 0.09344013
0.068925403 -0.090982497 0.092248783
0.069639206 -0.090911582 0.092178285
0.070329614 -0.090911582 0.092178285
0.071020029 -0.090911582 0.092178285
0.071686126 -0.090982497 0.092248783
0.072327182 -0.091124356 0.092389777
0.073016897 -0.091124356 0.092389777
0.073681578 -0.091195285 0.092460245
0.07439632 -0.091124356 0.092389777
0.069159284 -0.090762943 0.091054142
0.069875434 -0.090692177 0.090983465
0.070544325 -0.090762943 0.091054142
0.071212761 -0.090833694 0.091124788
0.071856402 -0.09097521 0.091266125
0.072523661 -0.091045976 0.091336772
0.073240034 -0.09097521 0.091266125
0.073906831 -0.091045976 0.091336772
0.074573152 -0.091116741 0.091407448
0.069346391 -0.090687856 0.089997828
0.069993541 -0.090829059 0.090139478
0.070687473 -0.090829059 0.090139478
0.071381398 -0.090829059 0.090139478
0.072051004 -0.090899646 0.090210304
0.072744697 -0.090899646 0.090210304
0.073413588 -0.090970248 0.090281144
0.074132077 -0.090899646 0.090210304
0.069463328 -0.090826735 0.089151859
0.070158899 -0.090826735 0.089151859
0.070854463 -0.090826735 0.089151859
0.071550034 -0.090826735 0.089151859
0.072172627 -0.091038018 0.089364842
0.072892047 -0.090967596 0.089293852
0.073636733 -0.090826735 0.089151859
0.074282244 -0.090967596 0.089293852
0.069767378 -0.090405151 0.087734967
0.070418753 -0.090545684 0.087877274
0.07109303 -0.090615958 0.087948456
0.071766853 -0.090686202 0.088019595
0.072415873 -0.090826735 0.088161916
0.073113084 -0.090826735 0.088161916
0.073785499 -0.090896994 0.088233069
0.070607729 -0.090478584 0.086813033
0.071331598 -0.090408474 0.086741701
0.071983665 -0.090548664 0.08688435
0.072610483 -0.09075895 0.087098315
0.073358677 -0.090618744 0.086955667
0.074008636 -0.09075895 0.087098315
0.070962064 -0.089924589 0.085245684
0.071570165 -0.090204298 0.085531667
0.072200485 -0.090414107 0.085746124
0.072878055 -0.090484008 0.085817605
0.073530592 -0.090623885 0.085960582
0.074206978 -0.090693831 0.086032078
0.070469029 -0.089794159 0.084103331
0.071174666 -0.089794159 0.084103331
0.07176102 -0.09014298 0.0844616
0.072369121 -0.090422049 0.084748223
0.073024005 -0.090561569 0.084891543
0.073702507 -0.090631336 0.084963188
0.069447398 -0.089109898 0.082383409
0.070064396 -0.089388296 0.082670689
0.07077308 -0.089388296 0.082670689
0.071481764 -0.089388296 0.082670689
0.072095014 -0.089666709 0.082957983
0.072706394 -0.089945123 0.083245263
0.073461853 -0.089805916 0.08310163
0.074095458 -0.090014696 0.083317086
0.072357439 -0.089403361 0.08166568
0.073067762 -0.089403361 0.08166568
0.073778085 -0.089403361 0.08166568
0 0 0 1 0 0 0 1 0 0 0 1 0 0 0 0 0 530 1 0 0
