ply
format ascii 1.0
comment PCL generated
element vertex 569
property float x
property float y
property float z
element camera 1
property float view_px
property float view_py
property float view_pz
property float x_axisx
property float x_axisy
property float x_axisz
property float y_axisx
property float y_axisy
property float y_axisz
property float z_axisx
property float z_axisy
property float z_axisz
property float focal
property float scalex
property float scaley
property float centerx
property float centery
property int viewportx
property int viewporty
property float k1
property float k2
end_header
0.068457045 -0.088666752 0.13161692
0.069137327 -0.088509321 0.13149148
0.069766618 -0.088509321 0.13149148
0.070369706 -0.088588044 0.13155422
0.070998751 -0.088588044 0.13155422
0.071627811 -0.088588044 0.13155422
0.072229974 -0.088666752 0.13161692
0.067149349 -0.089268491 0.13129804
0.067777701 -0.089268491 0.13129804
0.068431549 -0.089189947 0.13123517
0.069085866 -0.089111388 0.13117227
0.069740646 -0.089032859 0.1311094
0.070343509 -0.089111388 0.13117227
0.070972323 -0.089111388 0.13117227
0.071601145 -0.089111388 0.13117227
0.072203062 -0.089189947 0.13123517
0.072831646 -0.089189947 0.13123517
0.066471405 -0.089869559 0.13097982
0.067124315 -0.089791179 0.13091677
0.067752436 -0.089791179 0.13091677
0.068431549 -0.089634418 0.13079068
0.069060132 -0.089634418 0.13079068
0.069714688 -0.089556038 0.13072763
0.070343509 -0.089556038 0.13072763
0.070972323 -0.089556038 0.13072763
0.071601145 -0.089556038 0.13072763
0.072203062 -0.089634418 0.13079068
0.072804518 -0.089712799 0.13085373
0.073405497 -0.089791179 0.13091677
0.065794408 -0.090469956 0.13066225
0.066421822 -0.090469956 0.13066225
0.067074262 -0.090391725 0.13059902
0.067752436 -0.090235338 0.13047263
0.068406053 -0.090157107 0.13040942
0.069034405 -0.090157107 0.13040942
0.069688715 -0.090078905 0.13034621
0.070317306 -0.090078905 0.13034621
0.070945889 -0.090078905 0.13034621
0.071574479 -0.090078905 0.13034621
0.072176166 -0.090157107 0.13040942
0.072804518 -0.090157107 0.13040942
0.073378131 -0.090313539 0.13053584
0.074006014 -0.090313539 0.13053584
0.065769851 -0.090991646 0.13028197
0.066446617 -0.090835541 0.13015521
0.067074262 -0.090835541 0.13015521
0.067701921 -0.090835541 0.13015521
0.068355061 -0.090757519 0.13009186
0.069008671 -0.090679482 0.13002849
0.069636784 -0.090679482 0.13002849
0.070291109 -0.090601414 0.1299651
0.070919462 -0.090601414 0.1299651
0.071547814 -0.090601414 0.1299651
0.072149262 -0.090679482 0.13002849
0.072750241 -0.090757519 0.13009186
0.073350765 -0.090835541 0.13015521
0.073978417 -0.090835541 0.13015521
0.074578218 -0.090913609 0.1302186
0.065094016 -0.091590896 0.12996557
0.065769851 -0.091435134 0.12983848
0.066421822 -0.091357261 0.12977494
0.067024209 -0.091435134 0.12983848
0.067676648 -0.091357261 0.12977494
0.068329573 -0.091279358 0.12971139
0.068982944 -0.091201499 0.12964788
0.069636784 -0.091123626 0.12958434
0.070264906 -0.091123626 0.12958434
0.070919462 -0.091045737 0.12952079
0.071521141 -0.091123626 0.12958434
0.072122365 -0.091201499 0.12964788
0.072750241 -0.091201499 0.12964788
0.073323391 -0.091357261 0.12977494
0.073978417 -0.091279358 0.12971139
0.074578218 -0.091357261 0.12977494
0.065094016 -0.092034042 0.12952241
0.065745287 -0.091956347 0.12945871
0.066397026 -0.091878608 0.12939501
0.067024209 -0.091878608 0.12939501
0.067651391 -0.091878608 0.12939501
0.068329573 -0.091723174 0.12926759
0.068957217 -0.091723174 0.12926759
0.069610827 -0.091645479 0.1292039
0.070264906 -0.09156777 0.1291402
0.070893019 -0.09156777 0.1291402
0.071494475 -0.091645479 0.1292039
0.072122365 -0.091645479 0.1292039
0.072723113 -0.091723174 0.12926759
0.073350765 -0.091723174 0.12926759
0.073950805 -0.091800898 0.12933129
0.074550383 -0.091878608 0.12939501
0.075177565 -0.091878608 0.12939501
0.065094016 -0.092477202 0.12907927
0.065745287 -0.092399657 0.1290154
0.066397026 -0.092322096 0.12895152
0.067024209 -0.092322096 0.12895152
0.067651391 -0.092322096 0.12895152
0.068329573 -0.09216699 0.12882377
0.068957217 -0.09216699 0.12882377
0.069610827 -0.092089459 0.12875992
0.070264906 -0.092011914 0.12869605
0.070893019 -0.092011914 0.12869605
0.071521141 -0.092011914 0.12869605
0.072122365 -0.092089459 0.12875992
0.072723113 -0.09216699 0.12882377
0.073350765 -0.09216699 0.12882377
0.073950805 -0.092244551 0.12888765
0.074578218 -0.092244551 0.12888765
0.075205632 -0.092244551 0.12888765
0.06506969 -0.09299776 0.12870017
0.06572073 -0.092920363 0.12863611
0.066372231 -0.092842981 0.12857208
0.066999175 -0.092842981 0.12857208
0.067676648 -0.092688203 0.128444
0.068329573 -0.092610806 0.12837996
0.068982944 -0.092533439 0.12831593
0.069610827 -0.092533439 0.12831593
0.070264906 -0.092456073 0.1282519
0.070893019 -0.092456073 0.1282519
0.071521141 -0.092456073 0.1282519
0.072122365 -0.092533439 0.12831593
0.072750241 -0.092533439 0.12831593
0.073350765 -0.092610806 0.12837996
0.073950805 -0.092688203 0.128444
0.074578218 -0.092688203 0.128444
0.075205632 -0.092688203 0.128444
0.065745287 -0.093286291 0.12812877
0.066421822 -0.093131855 0.12800035
0.067049235 -0.093131855 0.12800035
0.067676648 -0.093131855 0.12800035
0.068329573 -0.093054622 0.12793614
0.069008671 -0.092900217 0.12780775
0.069662757 -0.092822984 0.12774354
0.070291109 -0.092822984 0.12774354
0.070945889 -0.092745766 0.12767935
0.071547814 -0.092822984 0.12774354
0.072176166 -0.092822984 0.12774354
0.072750241 -0.092977419 0.12787196
0.073378131 -0.092977419 0.12787196
0.073978417 -0.093054622 0.12793614
0.074578218 -0.093131855 0.12800035
0.065769851 -0.093652546 0.12762107
0.066421822 -0.093575507 0.1275567
0.067074262 -0.093498439 0.12749232
0.067701921 -0.093498439 0.12749232
0.068431549 -0.093190253 0.12723486
0.069111593 -0.09303613 0.12710613
0.069714688 -0.093113184 0.12717049
0.070343509 -0.093113184 0.12717049
0.070998751 -0.09303613 0.12710613
0.071601145 -0.093113184 0.12717049
0.072229974 -0.093113184 0.12717049
0.072804518 -0.093267292 0.12729923
0.07343287 -0.093267292 0.12729923
0.073978417 -0.093498439 0.12749232
0.066471405 -0.093865395 0.126984
0.067149349 -0.093711615 0.12685493
0.067802958 -0.093634725 0.12679039
0.068533532 -0.09332718 0.12653224
0.069188789 -0.093250275 0.12646769
0.069844507 -0.0931734 0.12640318
0.070474498 -0.0931734 0.12640318
0.071157351 -0.09301962 0.12627411
0.071734481 -0.0931734 0.12640318
0.072310671 -0.09332718 0.12653224
0.072858788 -0.093557835 0.12672584
0.073460236 -0.093634725 0.12679039
0.074061222 -0.093711615 0.12685493
0.067274481 -0.093772322 0.1260871
0.068005055 -0.093465418 0.12582831
0.068686515 -0.093311965 0.12569889
0.069317438 -0.093311965 0.12569889
0.070000298 -0.093158528 0.12556949
0.070631698 -0.093158528 0.12556949
0.07126309 -0.093158528 0.12556949
0.071867816 -0.093235269 0.12563421
0.07241828 -0.093465418 0.12582831
0.072967328 -0.093695566 0.1260224
0.073542349 -0.093849018 0.1261518
0.067424655 -0.093758106 0.12525277
0.068106107 -0.093604982 0.12512302
0.068813995 -0.09337534 0.12492844
0.069497548 -0.093222216 0.12479872
0.070156083 -0.093145669 0.12473385
0.070788883 -0.093145669 0.12473385
0.071421683 -0.093145669 0.12473385
0.072001152 -0.093298778 0.12486359
0.072552785 -0.09352845 0.12505819
0.073103003 -0.093758106 0.12525277
0.069094449 -0.092981994 0.12376614
0.069832042 -0.092676431 0.12350602
0.071103275 -0.092676431 0.12350602
0.071659572 -0.092905626 0.12370113
0.07224115 -0.093058392 0.12383118
0.070912711 -0.09083724 0.11940552
0.071687981 -0.090457782 0.11907789
0.072413206 -0.090230092 0.11888129
0.073166259 -0.089926511 0.11861917
0.069798648 -0.090763554 0.11848927
0.07042025 -0.090839282 0.11855495
0.071092822 -0.090763554 0.11848927
0.071869738 -0.090384901 0.1181608
0.072544202 -0.090309188 0.1180951
0.073377714 -0.089779094 0.11763525
0.070649713 -0.090616614 0.11750482
0.071272932 -0.090692177 0.1175707
0.072051495 -0.090314358 0.1172414
0.072779991 -0.090087667 0.11704382
0.073430583 -0.090087667 0.11704382
0.074107848 -0.090012133 0.11697796
0.070253365 -0.090321541 0.11638571
0.07085368 -0.090472341 0.11651775
0.071504503 -0.090472341 0.11651775
0.072155342 -0.090472341 0.11651775
0.07280618 -0.090472341 0.11651775
0.07345701 -0.090472341 0.11651775
0.074134521 -0.090396911 0.11645171
0.069752224 -0.090330675 0.11552802
0.070379682 -0.090405911 0.11559419
0.070930168 -0.09070684 0.11585897
0.071581706 -0.09070684 0.11585897
0.072233245 -0.09070684 0.11585897
0.072858579 -0.090782076 0.11592516
0.073509879 -0.090782076 0.11592516
0.074161187 -0.090782076 0.11592516
0.074893199 -0.090556368 0.11572659
0.069297872 -0.090191677 0.11453563
0.069902398 -0.090341821 0.11466834
0.070480719 -0.090567023 0.11486742
0.071108639 -0.090642095 0.11493376
0.071710356 -0.090792209 0.11506648
0.072337106 -0.090867266 0.11513284
0.072989583 -0.090867266 0.11513284
0.073615611 -0.090942353 0.11519919
0.074267857 -0.090942353 0.11519919
0.074947007 -0.090867266 0.11513284
0.069471426 -0.09013024 0.11360712
0.070077591 -0.090280041 0.11374018
0.070682824 -0.090429857 0.11387321
0.071261622 -0.090654537 0.11407277
0.071839005 -0.090879261 0.11427234
0.072414994 -0.091103956 0.1144719
0.073068172 -0.091103956 0.1144719
0.073694907 -0.091178864 0.11453845
0.074347854 -0.091178864 0.11453845
0.074973904 -0.091253743 0.11460495
0.06964498 -0.090071127 0.11267629
0.070202723 -0.090370074 0.11294305
0.070834383 -0.090444818 0.11300975
0.07141459 -0.090669006 0.1132098
0.071993388 -0.090893209 0.11340986
0.072570786 -0.091117397 0.11360991
0.073199168 -0.091192141 0.11367661
0.07382708 -0.09126687 0.11374329
0.074454524 -0.091341615 0.11380999
0.069183588 -0.089939758 0.11167631
0.069744147 -0.09023805 0.11194372
0.070377916 -0.090312615 0.11201057
0.070985958 -0.090461731 0.11214426
0.071542069 -0.090760022 0.11241169
0.072122037 -0.090983734 0.11261223
0.072726563 -0.091132864 0.11274594
0.07335636 -0.09120743 0.11281279
0.073959239 -0.091356561 0.11294651
0.069281831 -0.090108648 0.11094174
0.069892913 -0.090257466 0.11107577
0.07052809 -0.090331852 0.11114277
0.071137533 -0.090480655 0.11127682
0.071695052 -0.090778291 0.11154489
0.072276421 -0.091001481 0.11174594
0.07290832 -0.091075897 0.11181296
0.073487349 -0.091299102 0.11201403
0.074091405 -0.09144792 0.11214805
0.068864405 -0.089833438 0.10980272
0.069429189 -0.090130374 0.11007145
0.070041671 -0.090278864 0.11020581
0.070678249 -0.090353101 0.11027302
0.071238585 -0.090650052 0.11054173
0.071873523 -0.090724304 0.11060894
0.072456531 -0.090947002 0.11081047
0.073038138 -0.09116973 0.11101204
0.073644549 -0.091318175 0.11114639
0.06896171 -0.090005979 0.10906452
0.069601104 -0.090080038 0.10913184
0.07019043 -0.090302259 0.1093339
0.070878476 -0.090228185 0.10926655
0.071440674 -0.09052448 0.10953596
0.072051995 -0.090672627 0.10967065
0.072636642 -0.090894833 0.1098727
0.073245853 -0.091042981 0.11000741
0.073880337 -0.091117054 0.11007473
0.069156311 -0.089884207 0.10805489
0.069822133 -0.089884207 0.10805489
0.070388779 -0.090179831 0.10832496
0.071028642 -0.090253726 0.10839248
0.071617506 -0.09047547 0.10859503
0.072230466 -0.090623289 0.10873005
0.072868221 -0.090697169 0.10879757
0.073505498 -0.090771094 0.10886508
0.074142322 -0.090844989 0.1089326
0.068707302 -0.089691341 0.10697497
0.069350913 -0.089765102 0.10704266
0.069944933 -0.089986309 0.10724568
0.070587136 -0.09006004 0.10731336
0.071203835 -0.090207532 0.10744873
0.071769081 -0.090502486 0.10771945
0.072408937 -0.090576246 0.10778713
0.073048331 -0.090649977 0.10785481
0.073713221 -0.090649977 0.10785481
0.074351914 -0.090723708 0.10792249
0.068301797 -0.089354306 0.10575636
0.068900026 -0.089575052 0.10595991
0.069545515 -0.089648619 0.10602775
0.070165962 -0.089795783 0.10616343
0.070735887 -0.090090081 0.10643482
0.071379028 -0.090163648 0.10650267
0.071996436 -0.090310797 0.10663836
0.072587416 -0.090531513 0.10684189
0.073254175 -0.090531513 0.10684189
0.07389497 -0.090605095 0.10690975
0.074561499 -0.090605095 0.10690975
0.068444937 -0.089387983 0.10487418
0.069044575 -0.089608222 0.10507821
0.069667138 -0.089755028 0.10521422
0.070288762 -0.08990185 0.10535026
0.070909441 -0.090048671 0.10548629
0.071529187 -0.090195507 0.10562231
0.072097488 -0.090489119 0.10589434
0.072765894 -0.090489119 0.10589434
0.073408552 -0.090562537 0.10596237
0.07407672 -0.090562537 0.10596237
0.067962006 -0.089277148 0.10385363
0.068588078 -0.089423642 0.10398999
0.069189124 -0.089643359 0.10419451
0.069813095 -0.089789852 0.10433087
0.070460677 -0.089863107 0.10439906
0.071058206 -0.090082839 0.10460359
0.071679361 -0.090229318 0.10473993
0.072324842 -0.090302557 0.10480811
0.072918862 -0.090522304 0.10501266
0.073588662 -0.090522304 0.10501266
0.074258469 -0.090522304 0.10501266
0.067475319 -0.089168966 0.10283045
0.06808012 -0.089388192 0.10303549
0.068731219 -0.089461252 0.10310382
0.069333665 -0.089680508 0.10330886
0.069959037 -0.089826673 0.10344554
0.070608035 -0.089899749 0.10351388
0.071256556 -0.089972809 0.1035822
0.071854554 -0.09019205 0.10378726
0.072476409 -0.090338215 0.10392395
0.073148325 -0.090338215 0.10392395
0.073794506 -0.090411291 0.10399228
0.067545488 -0.089427978 0.10214715
0.068198226 -0.089500904 0.10221568
0.068826646 -0.089646727 0.10235269
0.069430031 -0.089865461 0.10255823
0.070104994 -0.089865461 0.10255823
0.070730828 -0.090011299 0.10269523
0.07135573 -0.090157107 0.10283226
0.072004721 -0.090230018 0.10290076
0.072653241 -0.090302944 0.10296927
0.073301308 -0.090375856 0.10303777
0.073974617 -0.090375856 0.10303777
0.067008048 -0.089469761 0.10125686
0.067662433 -0.089542508 0.10132553
0.06831634 -0.089615256 0.10139421
0.068922073 -0.089833498 0.10160024
0.069550484 -0.089979008 0.10173757
0.070202291 -0.090051726 0.10180625
0.070853621 -0.090124488 0.10187493
0.071529284 -0.090124488 0.10187493
0.072129861 -0.09034273 0.10208096
0.072804816 -0.09034273 0.10208096
0.073454283 -0.090415463 0.10214961
0.074129 -0.090415463 0.10214961
0.067100666 -0.089658692 0.10050225
0.067755982 -0.089731276 0.10057107
0.068410829 -0.08980386 0.10063994
0.069041356 -0.089949012 0.10077761
0.069695033 -0.090021595 0.10084644
0.07034824 -0.090094179 0.1009153
0.071000978 -0.090166762 0.10098413
0.071628459 -0.09031193 0.10112181
0.072280027 -0.090384498 0.10119063
0.072956391 -0.090384498 0.10119063
0.073581763 -0.090529665 0.10132831
0.074283384 -0.090457097 0.10125948
0.066536561 -0.089776546 0.099677294
0.067193285 -0.089848936 0.099746302
0.067826152 -0.089993775 0.099884316
0.06845808 -0.090138614 0.10002233
0.069112927 -0.090211019 0.10009132
0.069767304 -0.090283453 0.10016035
0.070445538 -0.090283453 0.10016035
0.071074657 -0.090428278 0.10029835
0.071727633 -0.090500683 0.10036735
0.072380133 -0.090573102 0.10043637
0.073057435 -0.090573102 0.10043637
0.073709242 -0.090645522 0.10050537
0.074412033 -0.090573102 0.10043637
0.066582404 -0.090112776 0.099058226
0.067239597 -0.090185016 0.099127382
0.067919701 -0.090185016 0.099127382
0.068552569 -0.090329513 0.099265724
0.069184497 -0.090474024 0.099404067
0.06986367 -0.090474024 0.099404067
0.070542842 -0.090474024 0.099404067
0.071197458 -0.090546265 0.099473238
0.071826808 -0.090690777 0.099611565
0.07250528 -0.090690777 0.099611565
0.073183753 -0.090690777 0.099611565
0.073862225 -0.090690777 0.099611565
0.07454069 -0.090690777 0.099611565
0.066651165 -0.090377584 0.098369122
0.067309052 -0.090449676 0.098438472
0.067943089 -0.09059386 0.098577142
0.068599813 -0.090665936 0.098646462
0.069303781 -0.09059386 0.098577142
0.069960035 -0.090665936 0.098646462
0.070640147 -0.090665936 0.098646462
0.071295694 -0.090738028 0.098715812
0.071950771 -0.09081009 0.098785147
0.072630413 -0.09081009 0.098785147
0.073310055 -0.09081009 0.098785147
0.073938712 -0.090954274 0.098923817
0.074617878 -0.090954274 0.098923817
0.066015482 -0.090715349 0.097748548
0.066697001 -0.090715349 0.097748548
0.067355365 -0.090787247 0.097818047
0.068036646 -0.090787247 0.097818047
0.068694308 -0.09085916 0.097887546
0.069375351 -0.09085916 0.097887546
0.070056401 -0.09085916 0.097887546
0.070737444 -0.09085916 0.097887546
0.071393929 -0.090931088 0.09795706
0.072074741 -0.090931088 0.09795706
0.072705492 -0.091074929 0.098096073
0.073385842 -0.091074929 0.098096073
0.074040696 -0.091146842 0.098165557
0.074746527 -0.091074929 0.098096073
0.066128917 -0.090838462 0.0969183
0.066765763 -0.090981975 0.097057641
0.067471132 -0.090910226 0.096987978
0.068176977 -0.090838462 0.0969183
0.068859667 -0.090838462 0.0969183
0.069518492 -0.090910226 0.096987978
0.070200935 -0.090910226 0.096987978
0.070883393 -0.090910226 0.096987978
0.071541287 -0.090981975 0.097057641
0.072198704 -0.091053739 0.097127318
0.072880685 -0.091053739 0.097127318
0.073562674 -0.091053739 0.097127318
0.074193664 -0.091197252 0.097266644
0.066219658 -0.091034859 0.096156254
0.066903278 -0.091034859 0.096156254
0.067610063 -0.090963259 0.096086398
0.068293914 -0.090963259 0.096086398
0.068977773 -0.090963259 0.096086398
0.069661632 -0.090963259 0.096086398
0.070345484 -0.090963259 0.096086398
0.071029343 -0.090963259 0.096086398
0.07166408 -0.09110643 0.096226066
0.07234747 -0.09110643 0.096226066
0.073030859 -0.09110643 0.096226066
0.073638462 -0.091321185 0.096435577
0.074321151 -0.091321185 0.096435577
0.067702681 -0.091161117 0.095322847
0.068387471 -0.091161117 0.095322847
0.069095887 -0.091089696 0.095252857
0.069804773 -0.091018274 0.095182836
0.070490032 -0.091018274 0.095182836
0.071126647 -0.091161117 0.095322847
0.071811438 -0.091161117 0.095322847
0.072496235 -0.091161117 0.095322847
0.073181026 -0.091161117 0.095322847
0.073840559 -0.091232553 0.095392853
0.074474126 -0.091375396 0.095532864
0.067132488 -0.091289058 0.094487816
0.067818448 -0.091289058 0.094487816
0.068527795 -0.091217816 0.094417647
0.069214001 -0.091217816 0.094417647
0.069900192 -0.091217816 0.094417647
0.070634574 -0.091075301 0.094277307
0.071272597 -0.091217816 0.094417647
0.071934238 -0.091289058 0.094487816
0.072620198 -0.091289058 0.094487816
0.073306166 -0.091289058 0.094487816
0.073966861 -0.091360331 0.094557986
0.067270003 -0.091347545 0.093580768
0.067957371 -0.091347545 0.093580768
0.068691514 -0.091205388 0.09344013
0.069402978 -0.091134295 0.093369782
0.070091054 -0.091134295 0.093369782
0.070779122 -0.091134295 0.093369782
0.071467198 -0.091134295 0.093369782
0.072081596 -0.091347545 0.093580768
0.072768964 -0.091347545 0.093580768
0.073456332 -0.091347545 0.093580768
0.074118435 -0.091418669 0.093651101
0.067430444 -0.091337115 0.092601255
0.068165764 -0.091195285 0.092460245
0.068855241 -0.091195285 0.092460245
0.069568336 -0.091124356 0.092389777
0.070305765 -0.090982497 0.092248783
0.070995942 -0.090982497 0.092248783
0.071637474 -0.091124356 0.092389777
0.072302625 -0.091195285 0.092460245
0.072992101 -0.091195285 0.092460245
0.073656552 -0.091266215 0.092530772
0.067613803 -0.091258273 0.091548771
0.068350993 -0.091116741 0.091407448
0.069089122 -0.09097521 0.091266125
0.069780938 -0.09097521 0.091266125
0.070520476 -0.090833694 0.091124788
0.071164578 -0.09097521 0.091266125
0.071856402 -0.09097521 0.091266125
0.072523661 -0.091045976 0.091336772
0.073215246 -0.091045976 0.091336772
0.073881797 -0.091116741 0.091407448
0.068513073 -0.091111436 0.090422809
0.069252834 -0.090970248 0.090281144
0.069946297 -0.090970248 0.090281144
0.070639752 -0.090970248 0.090281144
0.07135731 -0.090899646 0.090210304
0.072026677 -0.090970248 0.090281144
0.072744697 -0.090899646 0.090210304
0.073413588 -0.090970248 0.090281144
0.074107051 -0.090970248 0.090281144
0.068675146 -0.091108456 0.089435846
0.069393165 -0.091038018 0.089364842
0.070088036 -0.091038018 0.089364842
0.0707829 -0.091038018 0.089364842
0.071501851 -0.090967596 0.089293852
0.072172627 -0.091038018 0.089364842
0.072892047 -0.090967596 0.089293852
0.073587142 -0.090967596 0.089293852
0.074282244 -0.090967596 0.089293852
0.069603667 -0.090896994 0.088233069
0.070371501 -0.090686202 0.088019595
0.07102146 -0.090826735 0.088161916
0.071694583 -0.090896994 0.088233069
0.072415873 -0.090826735 0.088161916
0.073162198 -0.090686202 0.088019595
0.073810287 -0.090826735 0.088161916
0.069790766 -0.090829059 0.087169647
0.070607729 -0.090478584 0.086813033
0.071307741 -0.090478584 0.086813033
0.071983665 -0.090548664 0.08688435
0.072659135 -0.090618744 0.086955667
0.073358677 -0.090618744 0.086955667
0.074008636 -0.09075895 0.087098315
0.070164979 -0.090204298 0.085531667
0.070796706 -0.090414107 0.085746124
0.071498595 -0.090414107 0.085746124
0.072128214 -0.090623885 0.085960582
0.072805077 -0.090693831 0.086032078
0.073506027 -0.090693831 0.086032078
0.071103804 -0.090003446 0.08431828
0.07176102 -0.09014298 0.0844616
0.072320938 -0.090561569 0.084891543
0.073024005 -0.090561569 0.084891543
0.073702507 -0.090631336 0.084963188
0.070064396 -0.089388296 0.082670689
0.07077308 -0.089388296 0.082670689
0.071481764 -0.089388296 0.082670689
0.072047301 -0.089805916 0.08310163
0.072682306 -0.090014696 0.083317086
0.073364556 -0.090084314 0.08338891
0.074021779 -0.090223506 0.083532542
0 0 0 1 0 0 0 1 0 0 0 1 0 0 0 0 0 569 1 0 0
