ply
format ascii 1.0
comment PCL generated
element vertex 571
property float x
property float y
property float z
element camera 1
property float view_px
property float view_py
property float view_pz
property float x_axisx
property float x_axisy
property float x_axisz
property float y_axisx
property float y_axisy
property float y_axisz
property float z_axisx
property float z_axisy
property float z_axisz
property float focal
property float scalex
property float scaley
property float centerx
property float centery
property int viewportx
property int viewporty
property float k1
property float k2
end_header
0.069085866 -0.088666752 0.13161692
0.069740646 -0.088588044 0.13155422
0.070317306 -0.088745475 0.13167964
0.070945889 -0.088745475 0.13167964
0.071547814 -0.088824168 0.13174236
0.068431549 -0.089189947 0.13123517
0.069085866 -0.089111388 0.13117227
0.069714688 -0.089111388 0.13117227
0.070291109 -0.089268491 0.13129804
0.070919462 -0.089268491 0.13129804
0.071521141 -0.089347035 0.13136092
0.072122365 -0.089425579 0.1314238
0.072723113 -0.089504093 0.13148665
0.067149349 -0.089712799 0.13085373
0.067777701 -0.089712799 0.13085373
0.068406053 -0.089712799 0.13085373
0.069060132 -0.089634418 0.13079068
0.069688715 -0.089634418 0.13079068
0.070291109 -0.089712799 0.13085373
0.070919462 -0.089712799 0.13085373
0.071521141 -0.089791179 0.13091677
0.072095469 -0.089947909 0.13104284
0.072695971 -0.090026304 0.1311059
0.073323391 -0.090026304 0.1311059
0.066471405 -0.090313539 0.13053584
0.067099288 -0.090313539 0.13053584
0.067727178 -0.090313539 0.13053584
0.068380557 -0.090235338 0.13047263
0.069008671 -0.090235338 0.13047263
0.069636784 -0.090235338 0.13047263
0.070264906 -0.090235338 0.13047263
0.070893019 -0.090235338 0.13047263
0.071494475 -0.090313539 0.13053584
0.072095469 -0.090391725 0.13059902
0.072695971 -0.090469956 0.13066225
0.073296025 -0.090548158 0.13072546
0.073895596 -0.090626389 0.13078867
0.066397026 -0.090991646 0.13028197
0.067074262 -0.090835541 0.13015521
0.067701921 -0.090835541 0.13015521
0.068355061 -0.090757519 0.13009186
0.068982944 -0.090757519 0.13009186
0.069636784 -0.090679482 0.13002849
0.070212521 -0.090835541 0.13015521
0.070866592 -0.090757519 0.13009186
0.071467817 -0.090835541 0.13015521
0.072068557 -0.090913609 0.1302186
0.072668836 -0.090991646 0.13028197
0.073296025 -0.090991646 0.13028197
0.073895596 -0.091069698 0.13034534
0.074494705 -0.091147751 0.13040872
0.065745287 -0.091513023 0.12990203
0.066397026 -0.091435134 0.12983848
0.067024209 -0.091435134 0.12983848
0.067651391 -0.091435134 0.12983848
0.068304069 -0.091357261 0.12977494
0.068957217 -0.091279358 0.12971139
0.069584869 -0.091279358 0.12971139
0.070212521 -0.091279358 0.12971139
0.070840165 -0.091279358 0.12971139
0.071441144 -0.091357261 0.12977494
0.072041661 -0.091435134 0.12983848
0.072668836 -0.091435134 0.12983848
0.073268652 -0.091513023 0.12990203
0.073867999 -0.091590896 0.12996557
0.074466862 -0.091668785 0.13002911
0.06572073 -0.092034042 0.12952241
0.066347443 -0.092034042 0.12952241
0.066999175 -0.091956347 0.12945871
0.067626126 -0.091956347 0.12945871
0.068253078 -0.091956347 0.12945871
0.068931475 -0.091800898 0.12933129
0.069558896 -0.091800898 0.12933129
0.070212521 -0.091723174 0.12926759
0.070813723 -0.091800898 0.12933129
0.071441144 -0.091800898 0.12933129
0.072041661 -0.091878608 0.12939501
0.072641701 -0.091956347 0.12945871
0.073268652 -0.091956347 0.12945871
0.073895596 -0.091956347 0.12945871
0.074494705 -0.092034042 0.12952241
0.06572073 -0.092477202 0.12907927
0.066347443 -0.092477202 0.12907927
0.066999175 -0.092399657 0.1290154
0.067626126 -0.092399657 0.1290154
0.068253078 -0.092399657 0.1290154
0.068931475 -0.092244551 0.12888765
0.069558896 -0.092244551 0.12888765
0.070212521 -0.09216699 0.12882377
0.070840165 -0.09216699 0.12882377
0.071441144 -0.092244551 0.12888765
0.072068557 -0.092244551 0.12888765
0.072668836 -0.092322096 0.12895152
0.073268652 -0.092399657 0.1290154
0.073895596 -0.092399657 0.1290154
0.074494705 -0.092477202 0.12907927
0.066347443 -0.092920363 0.12863611
0.066999175 -0.092842981 0.12857208
0.067626126 -0.092842981 0.12857208
0.068278573 -0.092765585 0.12850803
0.068931475 -0.092688203 0.128444
0.069584869 -0.092610806 0.12837996
0.070212521 -0.092610806 0.12837996
0.070866592 -0.092533439 0.12831593
0.071494475 -0.092533439 0.12831593
0.072068557 -0.092688203 0.128444
0.072695971 -0.092688203 0.128444
0.073296025 -0.092765585 0.12850803
0.073923208 -0.092765585 0.12850803
0.07452254 -0.092842981 0.12857208
0.066347443 -0.093363509 0.12819296
0.066999175 -0.093286291 0.12812877
0.067651391 -0.093209058 0.12806454
0.068329573 -0.093054622 0.12793614
0.068957217 -0.093054622 0.12793614
0.069636784 -0.092900217 0.12780775
0.070264906 -0.092900217 0.12780775
0.070893019 -0.092900217 0.12780775
0.071521141 -0.092900217 0.12780775
0.072122365 -0.092977419 0.12787196
0.072723113 -0.093054622 0.12793614
0.073323391 -0.093131855 0.12800035
0.073923208 -0.093209058 0.12806454
0.066974156 -0.093806654 0.1277498
0.067676648 -0.093575507 0.1275567
0.068329573 -0.093498439 0.12749232
0.068982944 -0.0934214 0.12742797
0.069636784 -0.093344361 0.12736361
0.070264906 -0.093344361 0.12736361
0.070919462 -0.093267292 0.12729923
0.071601145 -0.093113184 0.12717049
0.072176166 -0.093267292 0.12729923
0.072777376 -0.093344361 0.12736361
0.073405497 -0.093344361 0.12736361
0.073950805 -0.093575507 0.1275567
0.067049235 -0.094019145 0.12711304
0.067727178 -0.093865395 0.126984
0.068482541 -0.093480945 0.12666132
0.069137327 -0.093404055 0.12659676
0.069818549 -0.093250275 0.12646769
0.070474498 -0.0931734 0.12640318
0.071104489 -0.0931734 0.12640318
0.071681149 -0.09332718 0.12653224
0.072229974 -0.093557835 0.12672584
0.072831646 -0.093634725 0.12679039
0.073405497 -0.093788505 0.12691946
0.074006014 -0.093865395 0.126984
0.067828223 -0.09400247 0.1262812
0.068533532 -0.093772322 0.1260871
0.069265977 -0.093465418 0.12582831
0.069922395 -0.093388706 0.12576361
0.070579298 -0.093311965 0.12569889
0.07121022 -0.093311965 0.12569889
0.071814477 -0.093388706 0.12576361
0.072364479 -0.09361887 0.12595771
0.072940193 -0.093772322 0.1260871
0.073542349 -0.093849018 0.1261518
0.068080842 -0.093681574 0.1251879
0.068813995 -0.09337534 0.12492844
0.06972912 -0.092533216 0.12421492
0.070130117 -0.093222216 0.12479872
0.070815086 -0.093069106 0.12466897
0.071421683 -0.093145669 0.12473385
0.072214492 -0.092686325 0.12434466
0.072767995 -0.092915997 0.12453926
0.072072625 -0.09076114 0.12018874
0.07266403 -0.090913266 0.12031946
0.073334508 -0.090837181 0.12025408
0.069798648 -0.090305999 0.11894682
0.07042025 -0.090381876 0.11901236
0.07104136 -0.090457782 0.11907789
0.071636058 -0.090609565 0.11920892
0.072256014 -0.090685472 0.11927447
0.072875492 -0.090761334 0.11933997
0.07354784 -0.090685472 0.11927447
0.068643287 -0.088340238 0.11638707
0.069124311 -0.088870361 0.11684695
0.069552004 -0.089551926 0.11743817
0.069950223 -0.090309188 0.1180951
0.07054773 -0.090460643 0.1182265
0.071118556 -0.090687811 0.11842357
0.071739912 -0.090763554 0.11848927
0.072334602 -0.090915009 0.11862066
0.072954789 -0.090990737 0.11868635
0.073601179 -0.090990737 0.11868635
0.068667844 -0.088727564 0.11585835
0.069173895 -0.089180931 0.11625353
0.069702171 -0.089558735 0.11658281
0.070127055 -0.09023881 0.11717553
0.070675202 -0.090541065 0.11743897
0.071298666 -0.090616614 0.11750482
0.071921661 -0.090692177 0.1175707
0.072518006 -0.09084329 0.11770241
0.073139817 -0.090918869 0.11776827
0.073787846 -0.090918869 0.11776827
0.068256281 -0.088436618 0.1147351
0.068716966 -0.089039788 0.11526328
0.069248281 -0.089416757 0.1155934
0.069802284 -0.089718357 0.1158575
0.070354417 -0.090019941 0.11612161
0.070879176 -0.090396911 0.11645171
0.071478777 -0.090547711 0.11658378
0.072077453 -0.09069851 0.11671583
0.072622791 -0.09100011 0.11697993
0.073271982 -0.09100011 0.11697993
0.073921181 -0.09100011 0.11697993
0.068304934 -0.088750824 0.11413804
0.069297872 -0.089728817 0.11499849
0.069877364 -0.089954525 0.11519708
0.070404939 -0.090330675 0.11552802
0.070981167 -0.090556368 0.11572659
0.071581706 -0.09070684 0.11585897
0.072155342 -0.090932548 0.11605754
0.072753794 -0.09108299 0.11618991
0.073404156 -0.09108299 0.11618991
0.074027851 -0.091158226 0.11625612
0.074677989 -0.091158226 0.11625612
0.067743666 -0.088915586 0.1134076
0.068353578 -0.089065701 0.11354029
0.06888888 -0.089441046 0.11387208
0.069421835 -0.089816362 0.11420386
0.069977477 -0.090116635 0.11446927
0.070531249 -0.090416893 0.11473471
0.071108639 -0.090642095 0.11493376
0.071710356 -0.090792209 0.11506648
0.072285175 -0.09101741 0.11526555
0.072884783 -0.091167539 0.11539826
0.073509879 -0.091242626 0.11546463
0.074134521 -0.091317669 0.11553097
0.07478559 -0.091317669 0.11553097
0.067791849 -0.089231461 0.11280887
0.068377912 -0.089456141 0.11300842
0.068962559 -0.089680851 0.113208
0.069496214 -0.090055361 0.1135406
0.070077591 -0.090280041 0.11374018
0.070657551 -0.090504766 0.11393975
0.071261622 -0.090654537 0.11407277
0.071787544 -0.091029063 0.11440539
0.072389022 -0.091178864 0.11453845
0.073015779 -0.091253743 0.11460495
0.073642053 -0.091328636 0.11467147
0.074267857 -0.091403559 0.11473799
0.067791849 -0.089697465 0.11234286
0.068377912 -0.089921653 0.11254291
0.068987116 -0.090071127 0.11267629
0.069545805 -0.090370074 0.11294305
0.070202723 -0.090370074 0.11294305
0.070758604 -0.090669006 0.1132098
0.07133811 -0.090893209 0.11340986
0.071967654 -0.090967953 0.11347656
0.072544813 -0.091192141 0.11367661
0.073172972 -0.09126687 0.11374329
0.073747776 -0.091491088 0.11394337
0.074374527 -0.091565818 0.11401004
0.067299813 -0.089641482 0.11140889
0.067888215 -0.089865178 0.11160944
0.068450883 -0.090163469 0.11187686
0.069060795 -0.090312615 0.11201057
0.069669768 -0.090461731 0.11214426
0.070302837 -0.090536296 0.11221112
0.070859656 -0.090834588 0.11247854
0.071491078 -0.090909168 0.1125454
0.072096311 -0.091058284 0.11267908
0.072700605 -0.09120743 0.11281279
0.073277757 -0.091431141 0.11301337
0.073906377 -0.091505706 0.1130802
0.074534528 -0.091580257 0.11314705
0.067936398 -0.090183049 0.11100873
0.068523854 -0.090406269 0.11120979
0.069159031 -0.090480655 0.11127682
0.069744147 -0.09070389 0.11147788
0.070377916 -0.090778291 0.11154489
0.070985958 -0.090927079 0.11167893
0.071618564 -0.091001481 0.11174594
0.072173499 -0.091299102 0.11201403
0.072804458 -0.091373518 0.11208105
0.073434956 -0.09144792 0.11214805
0.074064977 -0.091522306 0.11221506
0.068032756 -0.090353101 0.11027302
0.068621159 -0.090575814 0.11047457
0.069257274 -0.090650052 0.11054173
0.069868118 -0.090798512 0.11067611
0.070503056 -0.090872765 0.1107433
0.07108701 -0.091095477 0.11094485
0.071720548 -0.09116973 0.11101204
0.072353609 -0.091243953 0.11107922
0.072934285 -0.091466665 0.11128075
0.073565945 -0.091540903 0.11134796
0.074170701 -0.091689393 0.11148232
0.068177305 -0.090376332 0.10940126
0.068767115 -0.090598539 0.10960329
0.069404624 -0.090672627 0.10967065
0.070041671 -0.090746686 0.10973799
0.070678249 -0.09082076 0.10980535
0.071263842 -0.091042981 0.11000741
0.071822532 -0.091339275 0.11027679
0.072456531 -0.091413334 0.11034414
0.073116034 -0.091413334 0.11034414
0.073723137 -0.091561481 0.11047885
0.068370037 -0.090253726 0.10839248
0.069010362 -0.09032765 0.10845999
0.069625661 -0.09047547 0.10859503
0.070264816 -0.09054935 0.10866253
0.070878476 -0.090697169 0.10879757
0.071491197 -0.090844989 0.1089326
0.072077498 -0.091066688 0.10913514
0.07271383 -0.091140628 0.10920265
0.073245853 -0.091510147 0.10954024
0.073880337 -0.091584057 0.10960773
0.069204964 -0.090207532 0.10744873
0.069822133 -0.090355009 0.10758407
0.070487961 -0.090355009 0.10758407
0.071078695 -0.090576246 0.10778713
0.071718559 -0.090649977 0.10785481
0.072281457 -0.090944946 0.10812555
0.072945409 -0.090944946 0.10812555
0.073583394 -0.091018677 0.1081932
0.074220911 -0.091092438 0.1082609
0.068182513 -0.089722201 0.10609561
0.068755485 -0.090016484 0.10636698
0.069399558 -0.090090081 0.10643482
0.070043169 -0.090163648 0.10650267
0.070661515 -0.090310797 0.10663836
0.071278915 -0.090457946 0.10677405
0.071920656 -0.090531513 0.10684189
0.072536424 -0.090678662 0.10697758
0.07317698 -0.090752259 0.10704544
0.073817074 -0.090825826 0.10711327
0.068325654 -0.089755028 0.10521422
0.068948209 -0.08990185 0.10535026
0.069545515 -0.090122074 0.10555428
0.070215084 -0.090122074 0.10555428
0.070859857 -0.090195507 0.10562231
0.071504168 -0.09026891 0.1056903
0.07214801 -0.090342298 0.10575831
0.072816886 -0.090342298 0.10575831
0.073434286 -0.090489119 0.10589434
0.068468794 -0.089789852 0.10433087
0.069116846 -0.089863107 0.10439906
0.069764443 -0.089936346 0.10446723
0.070362441 -0.090156063 0.10467175
0.071033418 -0.090156063 0.10467175
0.071679361 -0.090229318 0.10473993
0.072324842 -0.090302557 0.10480811
0.072969854 -0.090375811 0.10487629
0.073588662 -0.090522304 0.10501266
0.068588078 -0.089899749 0.10351388
0.069261394 -0.089899749 0.10351388
0.069910392 -0.089972809 0.1035822
0.070534356 -0.09011896 0.10371891
0.071182176 -0.09019205 0.10378726
0.071854554 -0.09019205 0.10378726
0.072501682 -0.090265125 0.10385559
0.073148325 -0.090338215 0.10392395
0.073820233 -0.090338215 0.10392395
0.06808012 -0.089865461 0.10255823
0.068707362 -0.090011299 0.10269523
0.069381848 -0.090011299 0.10269523
0.070007689 -0.090157107 0.10283226
0.070681706 -0.090157107 0.10283226
0.071330935 -0.090230018 0.10290076
0.072004721 -0.090230018 0.10290076
0.072653241 -0.090302944 0.10296927
0.073326796 -0.090302944 0.10296927
0.074000344 -0.090302944 0.10296927
0.074673899 -0.090302944 0.10296927
0.068198226 -0.089979008 0.10173757
0.068850502 -0.090051726 0.10180625
0.069502302 -0.090124488 0.10187493
0.070177965 -0.090124488 0.10187493
0.070853621 -0.090124488 0.10187493
0.071479701 -0.090269968 0.10201228
0.072154887 -0.090269968 0.10201228
0.072804816 -0.09034273 0.10208096
0.073479779 -0.09034273 0.10208096
0.074154727 -0.09034273 0.10208096
0.07482969 -0.09034273 0.10208096
0.068292722 -0.090166762 0.10098413
0.068969786 -0.090166762 0.10098413
0.06964685 -0.090166762 0.10098413
0.070275269 -0.09031193 0.10112181
0.070951864 -0.09031193 0.10112181
0.071603663 -0.090384498 0.10119063
0.072280027 -0.090384498 0.10119063
0.072931126 -0.090457097 0.10125948
0.073607258 -0.090457097 0.10125948
0.074309118 -0.090384498 0.10119063
0.074985482 -0.090384498 0.10119063
0.067732595 -0.090283453 0.10016035
0.068363585 -0.090428278 0.10029835
0.069041356 -0.090428278 0.10029835
0.069719121 -0.090428278 0.10029835
0.070396893 -0.090428278 0.10029835
0.071074657 -0.090428278 0.10029835
0.071727633 -0.090500683 0.10036735
0.072380133 -0.090573102 0.10043637
0.073057435 -0.090573102 0.10043637
0.073734738 -0.090573102 0.10043637
0.074386306 -0.090645522 0.10050537
0.075089335 -0.090573102 0.10043637
0.067802764 -0.090546265 0.099473238
0.06845808 -0.090618521 0.099542424
0.069136783 -0.090618521 0.099542424
0.069815487 -0.090618521 0.099542424
0.070518523 -0.090546265 0.099473238
0.071172893 -0.090618521 0.099542424
0.071826808 -0.090690777 0.099611565
0.07250528 -0.090690777 0.099611565
0.073158488 -0.090763032 0.099680766
0.073862225 -0.090690777 0.099611565
0.07454069 -0.090690777 0.099611565
0.075219162 -0.090690777 0.099611565
0.067872927 -0.09081009 0.098785147
0.068552569 -0.09081009 0.098785147
0.069232211 -0.09081009 0.098785147
0.069911852 -0.09081009 0.098785147
0.070591494 -0.09081009 0.098785147
0.071295694 -0.090738028 0.098715812
0.071950771 -0.09081009 0.098785147
0.072630413 -0.09081009 0.098785147
0.073259532 -0.090954274 0.098923817
0.073938712 -0.090954274 0.098923817
0.074617878 -0.090954274 0.098923817
0.067919701 -0.091146842 0.098165557
0.068599813 -0.091146842 0.098165557
0.069303781 -0.091074929 0.098096073
0.070032306 -0.090931088 0.09795706
0.070713118 -0.090931088 0.09795706
0.071393929 -0.090931088 0.09795706
0.072074741 -0.090931088 0.09795706
0.072705492 -0.091074929 0.098096073
0.073385842 -0.091074929 0.098096073
0.074066184 -0.091074929 0.098096073
0.074746527 -0.091074929 0.098096073
0.068788789 -0.091053739 0.097127318
0.069494635 -0.090981975 0.097057641
0.070176847 -0.090981975 0.097057641
0.070859075 -0.090981975 0.097057641
0.071541287 -0.090981975 0.097057641
0.07214912 -0.091197252 0.097266644
0.072880685 -0.091053739 0.097127318
0.073562674 -0.091053739 0.097127318
0.074193664 -0.091197252 0.097266644
0.069661632 -0.090963259 0.096086398
0.070345484 -0.090963259 0.096086398
0.071005017 -0.091034859 0.096156254
0.07166408 -0.09110643 0.096226066
0.072322682 -0.091178015 0.096295893
0.073005833 -0.091178015 0.096295893
0.073688991 -0.091178015 0.096295893
0.07437215 -0.091178015 0.096295893
0.069190376 -0.090804011 0.094972864
0.069852479 -0.090875447 0.095042869
0.070538208 -0.090875447 0.095042869
0.071150973 -0.091089696 0.095252857
0.071835995 -0.091089696 0.095252857
0.072496235 -0.091161117 0.095322847
0.073181026 -0.091161117 0.095322847
0.073865823 -0.091161117 0.095322847
0.074525118 -0.091232553 0.095392853
0.068714909 -0.090647757 0.09385632
0.069332115 -0.090861514 0.094066799
0.069995627 -0.090932786 0.094136983
0.070682757 -0.090932786 0.094136983
0.071321249 -0.091075301 0.094277307
0.071958795 -0.091217816 0.094417647
0.072644986 -0.091217816 0.094417647
0.073331185 -0.091217816 0.094417647
0.073992133 -0.091289058 0.094487816
0.067545041 -0.090494469 0.09273681
0.068188913 -0.090636656 0.092877477
0.068878621 -0.090636656 0.092877477
0.069568336 -0.090636656 0.092877477
0.070234194 -0.090707749 0.092947781
0.070899576 -0.090778843 0.093018144
0.071515851 -0.090992108 0.093229115
0.072155267 -0.091134295 0.093369782
0.072843343 -0.091134295 0.093369782
0.073531412 -0.091134295 0.093369782
0.074194223 -0.091205388 0.09344013
0.067682564 -0.090556949 0.091825798
0.06837415 -0.090556949 0.091825798
0.069089122 -0.09048602 0.091755316
0.069780938 -0.09048602 0.091755316
0.070448905 -0.090556949 0.091825798
0.071068212 -0.090769738 0.092037305
0.071710445 -0.090911582 0.092178285
0.072376303 -0.090982497 0.092248783
0.07306648 -0.090982497 0.092248783
0.073681578 -0.091195285 0.092460245
0.074371062 -0.091195285 0.092460245
0.067774236 -0.090762943 0.091054142
0.068489917 -0.090692177 0.090983465
0.069206059 -0.090621427 0.090912819
0.069899052 -0.090621427 0.090912819
0.070544325 -0.090762943 0.091054142
0.071260944 -0.090692177 0.090983465
0.071856402 -0.09097521 0.091266125
0.072548218 -0.09097521 0.091266125
0.073240034 -0.09097521 0.091266125
0.073881797 -0.091116741 0.091407448
0.074522629 -0.091258273 0.091548771
0.068582535 -0.090899646 0.090210304
0.069299616 -0.090829059 0.090139478
0.070040792 -0.090687856 0.089997828
0.070735186 -0.090687856 0.089997828
0.07142958 -0.090687856 0.089997828
0.072051004 -0.090899646 0.090210304
0.072744697 -0.090899646 0.090210304
0.073438391 -0.090899646 0.090210304
0.074107051 -0.090970248 0.090281144
0.068675146 -0.091108456 0.089435846
0.069416553 -0.090967596 0.089293852
0.070158899 -0.090826735 0.089151859
0.070878319 -0.090756327 0.08908087
0.071550034 -0.090826735 0.089151859
0.072196953 -0.090967596 0.089293852
0.07286749 -0.091038018 0.089364842
0.073562354 -0.091038018 0.089364842
0.074232183 -0.091108456 0.089435846
0.068767764 -0.091318578 0.088660017
0.06951011 -0.091178045 0.088517696
0.070395119 -0.090615958 0.087948456
0.071116894 -0.090545684 0.087877274
0.071790941 -0.090615958 0.087948456
0.072415873 -0.090826735 0.088161916
0.073113084 -0.090826735 0.088161916
0.073785499 -0.090896994 0.088233069
0.06997788 -0.090268269 0.086599052
0.070678599 -0.090268269 0.086599052
0.071379319 -0.090268269 0.086599052
0.071983665 -0.090548664 0.08688435
0.072659135 -0.090618744 0.086955667
0.073358677 -0.090618744 0.086955667
0.073959053 -0.090899155 0.087240964
0.070281923 -0.089854643 0.085174188
0.070962064 -0.089924589 0.085245684
0.071617879 -0.090064436 0.085388675
0.072224572 -0.090344176 0.085674644
0.072902381 -0.090414107 0.085746124
0.073579714 -0.090484008 0.085817605
0.074231781 -0.090623885 0.085960582
0.069786549 -0.089724377 0.084031671
0.070469029 -0.089794159 0.084103331
0.071174666 -0.089794159 0.084103331
0.071784876 -0.090073213 0.084389955
0.072417304 -0.090282515 0.084604919
0.073096983 -0.090352282 0.084676549
0.073776186 -0.090422049 0.084748223
0.06953907 -0.088831514 0.08209613
0.070157014 -0.089109898 0.082383409
0.07077308 -0.089388296 0.082670689
0.071458139 -0.089457914 0.082742527
0.072166584 -0.089457914 0.082742527
0.07280276 -0.089666709 0.082957983
0.073486187 -0.089736298 0.083029792
0.074021779 -0.090223506 0.083532542
0.069055378 -0.088639587 0.080873832
0.069699518 -0.088847876 0.08108978
0.070342243 -0.089056194 0.081305757
0.071006961 -0.089195073 0.081449732
0.071647123 -0.089403361 0.08166568
0.072333589 -0.0894728 0.081737667
0.07309185 -0.089333951 0.081593692
0.073802404 -0.089333951 0.081593692
0.070504323 -0.089074418 0.080297589
0.071147293 -0.089282215 0.080514044
0.071836106 -0.089351475 0.08058618
0.072572149 -0.089282215 0.080514044
0.073332764 -0.089143679 0.080369741
0.074069984 -0.089074418 0.080297589
0 0 0 1 0 0 0 1 0 0 0 1 0 0 0 0 0 571 1 0 0
