ply
format ascii 1.0
comment PCL generated
element vertex 598
property float x
property float y
property float z
element camera 1
property float view_px
property float view_py
property float view_pz
property float x_axisx
property float x_axisy
property float x_axisz
property float y_axisx
property float y_axisy
property float y_axisz
property float z_axisx
property float z_axisy
property float z_axisz
property float focal
property float scalex
property float scaley
property float centerx
property float centery
property int viewportx
property int viewporty
property float k1
property float k2
end_header
0.068508044 -0.088509321 0.13149148
0.069137327 -0.088509321 0.13149148
0.069766618 -0.088509321 0.13149148
0.070395909 -0.088509321 0.13149148
0.070998751 -0.088588044 0.13155422
0.067199402 -0.089111388 0.13117227
0.067802958 -0.089189947 0.13123517
0.068457045 -0.089111388 0.13117227
0.069085866 -0.089111388 0.13117227
0.069740646 -0.089032859 0.1311094
0.070343509 -0.089111388 0.13117227
0.070998751 -0.089032859 0.1311094
0.071601145 -0.089111388 0.13117227
0.072176166 -0.089268491 0.13129804
0.066520996 -0.089712799 0.13085373
0.067149349 -0.089712799 0.13085373
0.067777701 -0.089712799 0.13085373
0.068457045 -0.089556038 0.13072763
0.069085866 -0.089556038 0.13072763
0.069714688 -0.089556038 0.13072763
0.070343509 -0.089556038 0.13072763
0.070972323 -0.089556038 0.13072763
0.071547814 -0.089712799 0.13085373
0.072149262 -0.089791179 0.13091677
0.072777376 -0.089791179 0.13091677
0.073405497 -0.089791179 0.13091677
0.065843523 -0.090313539 0.13053584
0.066496201 -0.090235338 0.13047263
0.067124315 -0.090235338 0.13047263
0.067777701 -0.090157107 0.13040942
0.068406053 -0.090157107 0.13040942
0.069060132 -0.090078905 0.13034621
0.069688715 -0.090078905 0.13034621
0.070317306 -0.090078905 0.13034621
0.070945889 -0.090078905 0.13034621
0.071547814 -0.090157107 0.13040942
0.072149262 -0.090235338 0.13047263
0.072750241 -0.090313539 0.13053584
0.073350765 -0.090391725 0.13059902
0.073978417 -0.090391725 0.13059902
0.065818965 -0.090835541 0.13015521
0.066446617 -0.090835541 0.13015521
0.067074262 -0.090835541 0.13015521
0.067727178 -0.090757519 0.13009186
0.068380557 -0.090679482 0.13002849
0.069034405 -0.090601414 0.1299651
0.069636784 -0.090679482 0.13002849
0.070264906 -0.090679482 0.13002849
0.070893019 -0.090679482 0.13002849
0.071521141 -0.090679482 0.13002849
0.072122365 -0.090757519 0.13009186
0.072750241 -0.090757519 0.13009186
0.073350765 -0.090835541 0.13015521
0.073950805 -0.090913609 0.1302186
0.065166995 -0.091357261 0.12977494
0.065794408 -0.091357261 0.12977494
0.066421822 -0.091357261 0.12977494
0.067074262 -0.091279358 0.12971139
0.067676648 -0.091357261 0.12977494
0.068329573 -0.091279358 0.12971139
0.068982944 -0.091201499 0.12964788
0.069610827 -0.091201499 0.12964788
0.070238717 -0.091201499 0.12964788
0.070866592 -0.091201499 0.12964788
0.071494475 -0.091201499 0.12964788
0.072122365 -0.091201499 0.12964788
0.072723113 -0.091279358 0.12971139
0.073350765 -0.091279358 0.12971139
0.073978417 -0.091279358 0.12971139
0.074606061 -0.091279358 0.12971139
0.065142669 -0.091878608 0.12939501
0.065769851 -0.091878608 0.12939501
0.066421822 -0.091800898 0.12933129
0.067024209 -0.091878608 0.12939501
0.067676648 -0.091800898 0.12933129
0.068304069 -0.091800898 0.12933129
0.068957217 -0.091723174 0.12926759
0.069584869 -0.091723174 0.12926759
0.070212521 -0.091723174 0.12926759
0.070866592 -0.091645479 0.1292039
0.071494475 -0.091645479 0.1292039
0.072095469 -0.091723174 0.12926759
0.072723113 -0.091723174 0.12926759
0.073350765 -0.091723174 0.12926759
0.073978417 -0.091723174 0.12926759
0.074578218 -0.091800898 0.12933129
0.065769851 -0.092322096 0.12895152
0.066397026 -0.092322096 0.12895152
0.067024209 -0.092322096 0.12895152
0.067676648 -0.092244551 0.12888765
0.068304069 -0.092244551 0.12888765
0.068931475 -0.092244551 0.12888765
0.069584869 -0.09216699 0.12882377
0.070238717 -0.092089459 0.12875992
0.070866592 -0.092089459 0.12875992
0.071494475 -0.092089459 0.12875992
0.072122365 -0.092089459 0.12875992
0.072723113 -0.09216699 0.12882377
0.073350765 -0.09216699 0.12882377
0.073978417 -0.09216699 0.12882377
0.074606061 -0.09216699 0.12882377
0.065745287 -0.092842981 0.12857208
0.066372231 -0.092842981 0.12857208
0.067024209 -0.092765585 0.12850803
0.067676648 -0.092688203 0.128444
0.068278573 -0.092765585 0.12850803
0.068957217 -0.092610806 0.12837996
0.069584869 -0.092610806 0.12837996
0.070212521 -0.092610806 0.12837996
0.070893019 -0.092456073 0.1282519
0.071521141 -0.092456073 0.1282519
0.072122365 -0.092533439 0.12831593
0.072750241 -0.092533439 0.12831593
0.073350765 -0.092610806 0.12837996
0.074006014 -0.092533439 0.12831593
0.074606061 -0.092610806 0.12837996
0.066347443 -0.093363509 0.12819296
0.066999175 -0.093286291 0.12812877
0.067651391 -0.093209058 0.12806454
0.068278573 -0.093209058 0.12806454
0.068931475 -0.093131855 0.12800035
0.069584869 -0.093054622 0.12793614
0.070317306 -0.092745766 0.12767935
0.070945889 -0.092745766 0.12767935
0.071574479 -0.092745766 0.12767935
0.072203062 -0.092745766 0.12767935
0.072804518 -0.092822984 0.12774354
0.073405497 -0.092900217 0.12780775
0.074006014 -0.092977419 0.12787196
0.066999175 -0.093729615 0.12768544
0.067626126 -0.093729615 0.12768544
0.068355061 -0.0934214 0.12742797
0.068931475 -0.093575507 0.1275567
0.069636784 -0.093344361 0.12736361
0.070291109 -0.093267292 0.12729923
0.070945889 -0.093190253 0.12723486
0.071574479 -0.093190253 0.12723486
0.072203062 -0.093190253 0.12723486
0.072804518 -0.093267292 0.12729923
0.073405497 -0.093344361 0.12736361
0.074006014 -0.0934214 0.12742797
0.067727178 -0.093865395 0.126984
0.068482541 -0.093480945 0.12666132
0.069137327 -0.093404055 0.12659676
0.069792576 -0.09332718 0.12653224
0.070474498 -0.0931734 0.12640318
0.071104489 -0.0931734 0.12640318
0.071707815 -0.093250275 0.12646769
0.072310671 -0.09332718 0.12653224
0.072858788 -0.093557835 0.12672584
0.073460236 -0.093634725 0.12679039
0.074088827 -0.093634725 0.12679039
0.069265977 -0.093465418 0.12582831
0.070052229 -0.093005091 0.12544011
0.070710286 -0.09292838 0.1253754
0.071315952 -0.093005091 0.12544011
0.071894489 -0.093158528 0.12556949
0.072472081 -0.093311965 0.12569889
0.072994463 -0.09361887 0.12595771
0.073597088 -0.093695566 0.1260224
0.073211551 -0.093451887 0.12499331
0.069672339 -0.090228736 0.1197312
0.070267268 -0.090380847 0.11986192
0.07086125 -0.090532973 0.11999264
0.071506232 -0.090532973 0.11999264
0.072098814 -0.090685084 0.12012337
0.069251671 -0.090002418 0.11868472
0.069748126 -0.090457782 0.11907789
0.070369251 -0.090533674 0.11914341
0.071015634 -0.090533674 0.11914341
0.071636058 -0.090609565 0.11920892
0.072229818 -0.090761334 0.11933997
0.072849058 -0.09083724 0.11940552
0.073521182 -0.090761334 0.11933997
0.067988709 -0.088340238 0.11638707
0.068495929 -0.088794634 0.11678122
0.069025144 -0.089173257 0.1171097
0.069451898 -0.089854807 0.11770093
0.069950223 -0.090309188 0.1180951
0.07054773 -0.090460643 0.1182265
0.071170017 -0.090536371 0.11829217
0.071817815 -0.090536371 0.11829217
0.072387002 -0.090763554 0.11848927
0.073007658 -0.090839282 0.11855495
0.07365451 -0.090839282 0.11855495
0.074328266 -0.090763554 0.11848927
0.067454576 -0.088425294 0.11559492
0.068013035 -0.088727564 0.11585835
0.068569608 -0.089029804 0.1161218
0.069099523 -0.089407608 0.11645108
0.069577031 -0.08993654 0.1169121
0.070101798 -0.090314358 0.1172414
0.070675202 -0.090541065 0.11743897
0.071324393 -0.090541065 0.11743897
0.071921661 -0.090692177 0.1175707
0.072570391 -0.090692177 0.1175707
0.073192686 -0.090767741 0.11763655
0.073867843 -0.090692177 0.1175707
0.066989675 -0.088285819 0.11460304
0.067526847 -0.088662803 0.11493316
0.068134658 -0.088813588 0.11506522
0.068643287 -0.089265957 0.11546135
0.069173895 -0.089642972 0.11579148
0.069727205 -0.089944541 0.11605556
0.070253365 -0.090321541 0.11638571
0.070879176 -0.090396911 0.11645171
0.071478777 -0.090547711 0.11658378
0.072103426 -0.090623111 0.11664979
0.072701395 -0.09077391 0.11678185
0.073351286 -0.09077391 0.11678185
0.074027851 -0.09069851 0.11671583
0.067647301 -0.088750824 0.11413804
0.068231955 -0.088976532 0.11433659
0.068790644 -0.089277446 0.11460136
0.069297872 -0.089728817 0.11499849
0.069827311 -0.090104997 0.11532946
0.070430197 -0.090255469 0.11546184
0.071032159 -0.090405911 0.11559419
0.071581706 -0.09070684 0.11585897
0.072207272 -0.090782076 0.11592516
0.072832383 -0.090857297 0.11599134
0.073483452 -0.090857297 0.11599134
0.074107848 -0.090932548 0.11605754
0.067108959 -0.088840529 0.11334124
0.067743666 -0.088915586 0.1134076
0.06832926 -0.089140773 0.11360665
0.068864316 -0.089516118 0.11393845
0.069446631 -0.089741305 0.1141375
0.069977477 -0.090116635 0.11446927
0.070581771 -0.090266749 0.114602
0.071185127 -0.090416893 0.11473471
0.071736082 -0.090717167 0.11500014
0.072363064 -0.090792209 0.11506648
0.072963379 -0.090942353 0.11519919
0.073589183 -0.09101741 0.11526555
0.074241191 -0.09101741 0.11526555
0.074893199 -0.09101741 0.11526555
0.06722825 -0.088931844 0.11254278
0.067840032 -0.089081645 0.11267583
0.068402231 -0.089381263 0.11294192
0.068987116 -0.089605942 0.11314148
0.069496214 -0.090055361 0.1135406
0.070127644 -0.09013024 0.11360712
0.070733346 -0.090280041 0.11374018
0.071287118 -0.090579659 0.11400625
0.071864739 -0.090804338 0.11420581
0.072440952 -0.091029063 0.11440539
0.073068172 -0.091103956 0.1144719
0.073694907 -0.091178864 0.11453845
0.074321188 -0.091253743 0.11460495
0.067347527 -0.089024842 0.11174268
0.067912303 -0.089323789 0.11200944
0.068499535 -0.089547992 0.11220948
0.069060795 -0.089846939 0.11247624
0.06964498 -0.090071127 0.11267629
0.07022775 -0.090295345 0.11287637
0.070834383 -0.090444818 0.11300975
0.07141459 -0.090669006 0.1132098
0.071993388 -0.090893209 0.11340986
0.072596744 -0.091042683 0.11354323
0.073225372 -0.091117397 0.11360991
0.073853508 -0.091192141 0.11367661
0.074481197 -0.09126687 0.11374329
0.066804498 -0.089119509 0.11094093
0.06739524 -0.089343205 0.11114147
0.067960486 -0.089641482 0.11140889
0.068572506 -0.089790627 0.11154261
0.069159031 -0.090014324 0.11174315
0.069744147 -0.09023805 0.11194372
0.070377916 -0.090312615 0.11201057
0.070960701 -0.090536296 0.11221112
0.071593069 -0.090610877 0.11227798
0.072122037 -0.090983734 0.11261223
0.072726563 -0.091132864 0.11274594
0.07335636 -0.09120743 0.11281279
0.073959239 -0.091356561 0.11294651
0.06685175 -0.08943902 0.11033857
0.067442961 -0.089662224 0.1105396
0.068056852 -0.089811027 0.11067365
0.068669811 -0.089959845 0.11080769
0.069257274 -0.090183049 0.11100873
0.069868118 -0.090331852 0.11114277
0.07047803 -0.090480655 0.11127682
0.071061745 -0.09070389 0.11147788
0.071669556 -0.090852663 0.1116119
0.072276421 -0.091001481 0.11174594
0.07290832 -0.091075897 0.11181296
0.073513545 -0.0912247 0.11194701
0.074117832 -0.091373518 0.11208105
0.068105035 -0.090130374 0.11007145
0.068718463 -0.090278864 0.11020581
0.069330946 -0.090427339 0.11034019
0.069917709 -0.090650052 0.11054173
0.070578143 -0.090650052 0.11054173
0.071188062 -0.090798512 0.11067611
0.071797036 -0.090947002 0.11081047
0.072379336 -0.09116973 0.11101204
0.073012173 -0.091243953 0.11107922
0.074276432 -0.091392428 0.11121358
0.066946238 -0.090080038 0.10913184
0.067586094 -0.090154126 0.10919921
0.068225488 -0.090228185 0.10926655
0.068840086 -0.090376332 0.10940126
0.069453746 -0.09052448 0.10953596
0.070066467 -0.090672627 0.10967065
0.070728302 -0.090672627 0.10967065
0.07133963 -0.09082076 0.10980535
0.071924515 -0.091042981 0.11000741
0.072559454 -0.091117054 0.11007473
0.073167965 -0.091265187 0.11020944
0.073801734 -0.091339275 0.11027679
0.067753091 -0.090105921 0.10825744
0.068370037 -0.090253726 0.10839248
0.069010362 -0.09032765 0.10845999
0.069674775 -0.09032765 0.10845999
0.070240021 -0.090623289 0.10873005
0.070878476 -0.090697169 0.10879757
0.071491197 -0.090844989 0.1089326
0.072102986 -0.090992808 0.10906763
0.072739564 -0.091066688 0.10913514
0.07337568 -0.091140628 0.10920265
0.067896232 -0.090133786 0.10738105
0.068538666 -0.090207532 0.10744873
0.069180638 -0.090281278 0.10751642
0.069822133 -0.090355009 0.10758407
0.07043837 -0.090502486 0.10771945
0.071053669 -0.090649977 0.10785481
0.071693301 -0.090723708 0.10792249
0.072281457 -0.090944946 0.10812555
0.072919682 -0.091018677 0.1081932
0.073583394 -0.091018677 0.1081932
0.068707302 -0.090163648 0.10650267
0.069350913 -0.09023723 0.10657053
0.069994047 -0.090310797 0.10663836
0.070611924 -0.090457946 0.10677405
0.071253896 -0.090531513 0.10684189
0.071870133 -0.090678662 0.10697758
0.072536424 -0.090678662 0.10697758
0.07317698 -0.090752259 0.10704544
0.07384304 -0.090752259 0.10704544
0.067560419 -0.090048671 0.10548629
0.068182513 -0.090195507 0.10562231
0.068851843 -0.090195507 0.10562231
0.069472544 -0.090342298 0.10575831
0.070141405 -0.090342298 0.10575831
0.070810273 -0.090342298 0.10575831
0.071404055 -0.090562537 0.10596237
0.072072223 -0.090562537 0.10596237
0.072714895 -0.09063594 0.10603037
0.07335709 -0.090709358 0.1060984
0.067702159 -0.090082839 0.10460359
0.068325654 -0.090229318 0.10473993
0.068996392 -0.090229318 0.10473993
0.069642819 -0.090302557 0.10480811
0.070288762 -0.090375811 0.10487629
0.070959032 -0.090375811 0.10487629
0.071579248 -0.090522304 0.10501266
0.072223797 -0.090595543 0.10508083
0.07286787 -0.090668797 0.10514902
0.073537201 -0.090668797 0.10514902
0.067171276 -0.09011896 0.10371891
0.067820273 -0.09019205 0.10378726
0.068468794 -0.090265125 0.10385559
0.069116846 -0.090338215 0.10392395
0.069764443 -0.090411291 0.10399228
0.07043612 -0.090411291 0.10399228
0.071132585 -0.090338215 0.10392395
0.071779475 -0.090411291 0.10399228
0.07240063 -0.090557456 0.10412897
0.073071845 -0.090557456 0.10412897
0.073717318 -0.090630502 0.10419729
0.06728822 -0.090230018 0.10290076
0.06793838 -0.090302944 0.10296927
0.068611935 -0.090302944 0.10296927
0.069261394 -0.090375856 0.10303777
0.069934718 -0.090375856 0.10303777
0.070583478 -0.090448752 0.10310628
0.071281351 -0.090375856 0.10303777
0.071954668 -0.090375856 0.10303777
0.072627984 -0.090375856 0.10303777
0.073275812 -0.090448752 0.10310628
0.07394889 -0.090448752 0.10310628
0.066637583 -0.09063372 0.10235564
0.0673116 -0.09063372 0.10235564
0.068056501 -0.090415463 0.10214961
0.068731219 -0.090415463 0.10214961
0.069381848 -0.090488225 0.1022183
0.070056342 -0.090488225 0.1022183
0.070755392 -0.090415463 0.10214961
0.071430109 -0.090415463 0.10214961
0.0720798 -0.090488225 0.1022183
0.072779559 -0.090415463 0.10214961
0.073454283 -0.090415463 0.10214961
0.074129 -0.090415463 0.10214961
0.066753358 -0.090747401 0.10153484
0.067428552 -0.090747401 0.10153484
0.068150982 -0.090602249 0.10139717
0.068826646 -0.090602249 0.10139717
0.069502302 -0.090602249 0.10139717
0.070202291 -0.090529665 0.10132831
0.070878185 -0.090529665 0.10132831
0.07155408 -0.090529665 0.10132831
0.072229974 -0.090529665 0.10132831
0.072905868 -0.090529665 0.10132831
0.073607258 -0.090457097 0.10125948
0.074283384 -0.090457097 0.10125948
0.066215687 -0.090790361 0.10064338
0.066869132 -0.090862751 0.10071237
0.067568876 -0.090790361 0.10064338
0.068292722 -0.090645522 0.10050537
0.068969786 -0.090645522 0.10050537
0.069598667 -0.090790361 0.10064338
0.070323914 -0.090645522 0.10050537
0.071025535 -0.090573102 0.10043637
0.071702838 -0.090573102 0.10043637
0.072355106 -0.090645522 0.10050537
0.073057435 -0.090573102 0.10043637
0.073734738 -0.090573102 0.10043637
0.074412033 -0.090573102 0.10043637
0.06628444 -0.091052026 0.099957451
0.066961743 -0.091052026 0.099957451
0.067662433 -0.09097977 0.099888265
0.068339966 -0.09097977 0.099888265
0.06908907 -0.090763032 0.099680766
0.069767304 -0.090763032 0.099680766
0.070445538 -0.090763032 0.099680766
0.071123779 -0.090763032 0.099680766
0.071802013 -0.090763032 0.099680766
0.07250528 -0.090690777 0.099611565
0.073183753 -0.090690777 0.099611565
0.073836721 -0.090763032 0.099680766
0.07454069 -0.090690777 0.099611565
0.066330284 -0.09138678 0.099339843
0.067054361 -0.091242626 0.099201173
0.067755982 -0.09117052 0.099131823
0.068434462 -0.09117052 0.099131823
0.069112927 -0.09117052 0.099131823
0.06986367 -0.090954274 0.098923817
0.070591494 -0.09081009 0.098785147
0.071222015 -0.090954274 0.098923817
0.071876399 -0.091026351 0.098993152
0.07258036 -0.090954274 0.098923817
0.073310055 -0.09081009 0.098785147
0.073938712 -0.090954274 0.098923817
0.074669339 -0.09081009 0.098785147
0.066444889 -0.091506436 0.098513067
0.067123823 -0.091506436 0.098513067
0.067872927 -0.091290668 0.09830457
0.068552569 -0.091290668 0.09830457
0.06925606 -0.09121877 0.098235071
0.069960035 -0.091146842 0.098165557
0.070664465 -0.091074929 0.098096073
0.071393929 -0.090931088 0.09795706
0.072074741 -0.090931088 0.09795706
0.072755553 -0.090931088 0.09795706
0.073436365 -0.090931088 0.09795706
0.074066184 -0.091074929 0.098096073
0.074797988 -0.090931088 0.09795706
0.065879375 -0.091627762 0.097684637
0.066582404 -0.091556013 0.097614989
0.067309052 -0.0914125 0.097475648
0.068013258 -0.091340736 0.09740597
0.068694308 -0.091340736 0.09740597
0.069399208 -0.091268986 0.097336307
0.07015276 -0.091053739 0.097127318
0.070834741 -0.091053739 0.097127318
0.071541287 -0.090981975 0.097057641
0.072198704 -0.091053739 0.097127318
0.072880685 -0.091053739 0.097127318
0.073562674 -0.091053739 0.097127318
0.074193664 -0.091197252 0.097266644
0.074926637 -0.091053739 0.097127318
0.066788681 -0.091392785 0.096505418
0.067494288 -0.091321185 0.096435577
0.068223752 -0.091178015 0.096295893
0.068906911 -0.091178015 0.096295893
0.069590062 -0.091178015 0.096295893
0.070297301 -0.09110643 0.096226066
0.071005017 -0.091034859 0.096156254
0.071639523 -0.091178015 0.096295893
0.072322682 -0.091178015 0.096295893
0.073030859 -0.09110643 0.096226066
0.073714249 -0.09110643 0.096226066
0.07437215 -0.091178015 0.096295893
0.067702681 -0.091161117 0.095322847
0.068387471 -0.091161117 0.095322847
0.069072269 -0.091161117 0.095322847
0.069757059 -0.091161117 0.095322847
0.07044185 -0.091161117 0.095322847
0.071102321 -0.091232553 0.095392853
0.07178688 -0.091232553 0.095392853
0.072471432 -0.091232553 0.095392853
0.073155992 -0.091232553 0.095392853
0.073790029 -0.091375396 0.095532864
0.074474126 -0.091375396 0.095532864
0.06644652 -0.091289058 0.094487816
0.067109562 -0.091360331 0.094557986
0.067818448 -0.091289058 0.094487816
0.068504408 -0.091289058 0.094487816
0.069214001 -0.091217816 0.094417647
0.069900192 -0.091217816 0.094417647
0.070586391 -0.091217816 0.094417647
0.071272597 -0.091217816 0.094417647
0.071934238 -0.091289058 0.094487816
0.072595403 -0.091360331 0.094557986
0.073306166 -0.091289058 0.094487816
0.073966861 -0.091360331 0.094557986
0.067247085 -0.091418669 0.093651101
0.067957371 -0.091347545 0.093580768
0.068691514 -0.091205388 0.09344013
0.069402978 -0.091134295 0.093369782
0.070091054 -0.091134295 0.093369782
0.070779122 -0.091134295 0.093369782
0.071467198 -0.091134295 0.093369782
0.072081596 -0.091347545 0.093580768
0.072768964 -0.091347545 0.093580768
0.073456332 -0.091347545 0.093580768
0.074118435 -0.091418669 0.093651101
0.066696063 -0.091478974 0.092742249
0.067430444 -0.091337115 0.092601255
0.0681426 -0.091266215 0.092530772
0.068855241 -0.091195285 0.092460245
0.069615588 -0.090982497 0.092248783
0.070305765 -0.090982497 0.092248783
0.070995942 -0.090982497 0.092248783
0.071637474 -0.091124356 0.092389777
0.072278067 -0.091266215 0.092530772
0.072967306 -0.091266215 0.092530772
0.073656552 -0.091266215 0.092530772
0.06680949 -0.091612056 0.091902077
0.067499205 -0.091612056 0.091902077
0.068281531 -0.091329008 0.091619417
0.069065735 -0.091045976 0.091336772
0.06975732 -0.091045976 0.091336772
0.070520476 -0.090833694 0.091124788
0.071164578 -0.09097521 0.091266125
0.07180775 -0.091116741 0.091407448
0.072499096 -0.091116741 0.091407448
0.073190451 -0.091116741 0.091407448
0.073881797 -0.091116741 0.091407448
0.067659639 -0.091605604 0.090918586
0.068443611 -0.091323212 0.09063527
0.069159284 -0.09125264 0.090564445
0.069946297 -0.090970248 0.090281144
0.070687473 -0.090829059 0.090139478
0.07135731 -0.090899646 0.090210304
0.072026677 -0.090970248 0.090281144
0.072720133 -0.090970248 0.090281144
0.073364004 -0.091111436 0.090422809
0.07405699 -0.091111436 0.090422809
0.06782008 -0.091601461 0.089932784
0.068582535 -0.091390163 0.089719787
0.069369778 -0.091108456 0.089435846
0.070088036 -0.091038018 0.089364842
0.070854463 -0.090826735 0.089151859
0.071550034 -0.090826735 0.089151859
0.072172627 -0.091038018 0.089364842
0.07286749 -0.091038018 0.089364842
0.073587142 -0.090967596 0.089293852
0.068675146 -0.091599643 0.088944659
0.069486715 -0.091248333 0.088588864
0.070371501 -0.090686202 0.088019595
0.071069174 -0.090686202 0.088019595
0.07171867 -0.090826735 0.088161916
0.072464526 -0.090686202 0.088019595
0.073113084 -0.090826735 0.088161916
0.068976156 -0.091179535 0.087526262
0.069790766 -0.090829059 0.087169647
0.070560485 -0.090618744 0.086955667
0.071283884 -0.090548664 0.08688435
0.071983665 -0.090548664 0.08688435
0.072683454 -0.090548664 0.08688435
0.073358677 -0.090618744 0.086955667
0.069392927 -0.090414107 0.085746124
0.070188373 -0.090134367 0.085460156
0.070891201 -0.090134367 0.085460156
0.071522452 -0.090344176 0.085674644
0.072224572 -0.090344176 0.085674644
0.072902381 -0.090414107 0.085746124
0.073579714 -0.090484008 0.085817605
0.069740243 -0.089863911 0.084174976
0.070445642 -0.089863911 0.084174976
0.071151048 -0.089863911 0.084174976
0.07176102 -0.09014298 0.0844616
0.072417304 -0.090282515 0.084604919
0.073121309 -0.090282515 0.084604919
0.06951616 -0.088901088 0.082167953
0.070157014 -0.089109898 0.082383409
0.070819855 -0.089249104 0.082527041
0.071481764 -0.089388296 0.082670689
0.072142728 -0.089527503 0.082814336
0.072850943 -0.089527503 0.082814336
0.073510505 -0.089666709 0.082957983
0.070342243 -0.089056194 0.081305757
0.071030349 -0.089125633 0.081377745
0.071717985 -0.089195073 0.081449732
0.072429009 -0.089195073 0.081449732
0.07309185 -0.089333951 0.081593692
0 0 0 1 0 0 0 1 0 0 0 1 0 0 0 0 0 598 1 0 0
