ply
format ascii 1.0
comment PCL generated
element vertex 488
property float x
property float y
property float z
element camera 1
property float view_px
property float view_py
property float view_pz
property float x_axisx
property float x_axisy
property float x_axisz
property float y_axisx
property float y_axisy
property float y_axisz
property float z_axisx
property float z_axisy
property float z_axisz
property float focal
property float scalex
property float scaley
property float centerx
property float centery
property int viewportx
property int viewporty
property float k1
property float k2
end_header
0.069688715 -0.088745475 0.13167964
0.070317306 -0.088745475 0.13167964
0.070919462 -0.088824168 0.13174236
0.071547814 -0.088824168 0.13174236
0.068380557 -0.089347035 0.13136092
0.069034405 -0.089268491 0.13129804
0.069688715 -0.089189947 0.13123517
0.070291109 -0.089268491 0.13129804
0.070893019 -0.089347035 0.13136092
0.071494475 -0.089425579 0.1314238
0.072149262 -0.089347035 0.13136092
0.072750241 -0.089425579 0.1314238
0.067099288 -0.089869559 0.13097982
0.067727178 -0.089869559 0.13097982
0.068380557 -0.089791179 0.13091677
0.068982944 -0.089869559 0.13097982
0.069662757 -0.089712799 0.13085373
0.070291109 -0.089712799 0.13085373
0.070893019 -0.089791179 0.13091677
0.071494475 -0.089869559 0.13097982
0.072095469 -0.089947909 0.13104284
0.072723113 -0.089947909 0.13104284
0.073350765 -0.089947909 0.13104284
0.066397026 -0.090548158 0.13072546
0.067049235 -0.090469956 0.13066225
0.067701921 -0.090391725 0.13059902
0.068329573 -0.090391725 0.13059902
0.068957217 -0.090391725 0.13059902
0.069610827 -0.090313539 0.13053584
0.070238717 -0.090313539 0.13053584
0.070866592 -0.090313539 0.13053584
0.071494475 -0.090313539 0.13053584
0.072095469 -0.090391725 0.13059902
0.072723113 -0.090391725 0.13059902
0.073296025 -0.090548158 0.13072546
0.073950805 -0.090469956 0.13066225
0.066372231 -0.091069698 0.13034534
0.067024209 -0.090991646 0.13028197
0.067651391 -0.090991646 0.13028197
0.068304069 -0.090913609 0.1302186
0.068931475 -0.090913609 0.1302186
0.069610827 -0.090757519 0.13009186
0.070212521 -0.090835541 0.13015521
0.070840165 -0.090835541 0.13015521
0.071467817 -0.090835541 0.13015521
0.072095469 -0.090835541 0.13015521
0.072695971 -0.090913609 0.1302186
0.073323391 -0.090913609 0.1302186
0.073923208 -0.090991646 0.13028197
0.06572073 -0.091590896 0.12996557
0.066372231 -0.091513023 0.12990203
0.066999175 -0.091513023 0.12990203
0.067651391 -0.091435134 0.12983848
0.068278573 -0.091435134 0.12983848
0.068931475 -0.091357261 0.12977494
0.069584869 -0.091279358 0.12971139
0.070212521 -0.091279358 0.12971139
0.070840165 -0.091279358 0.12971139
0.071467817 -0.091279358 0.12971139
0.072068557 -0.091357261 0.12977494
0.072695971 -0.091357261 0.12977494
0.073323391 -0.091357261 0.12977494
0.073923208 -0.091435134 0.12983848
0.074550383 -0.091435134 0.12983848
0.065696165 -0.092111781 0.12958613
0.066347443 -0.092034042 0.12952241
0.066974156 -0.092034042 0.12952241
0.067626126 -0.091956347 0.12945871
0.068253078 -0.091956347 0.12945871
0.068905748 -0.091878608 0.12939501
0.069558896 -0.091800898 0.12933129
0.070186317 -0.091800898 0.12933129
0.070813723 -0.091800898 0.12933129
0.071441144 -0.091800898 0.12933129
0.072068557 -0.091800898 0.12933129
0.072695971 -0.091800898 0.12933129
0.073296025 -0.091878608 0.12939501
0.073923208 -0.091878608 0.12939501
0.07452254 -0.091956347 0.12945871
0.066322647 -0.092554763 0.12914315
0.066974156 -0.092477202 0.12907927
0.067626126 -0.092399657 0.1290154
0.068253078 -0.092399657 0.1290154
0.068905748 -0.092322096 0.12895152
0.069558896 -0.092244551 0.12888765
0.070212521 -0.09216699 0.12882377
0.070840165 -0.09216699 0.12882377
0.071467817 -0.09216699 0.12882377
0.072095469 -0.09216699 0.12882377
0.072695971 -0.092244551 0.12888765
0.073323391 -0.092244551 0.12888765
0.073923208 -0.092322096 0.12895152
0.074550383 -0.092322096 0.12895152
0.066322647 -0.09299776 0.12870017
0.066999175 -0.092842981 0.12857208
0.067600869 -0.092920363 0.12863611
0.068253078 -0.092842981 0.12857208
0.068931475 -0.092688203 0.128444
0.069558896 -0.092688203 0.128444
0.070238717 -0.092533439 0.12831593
0.070866592 -0.092533439 0.12831593
0.071494475 -0.092533439 0.12831593
0.072095469 -0.092610806 0.12837996
0.072723113 -0.092610806 0.12837996
0.073350765 -0.092610806 0.12837996
0.073978417 -0.092610806 0.12837996
0.074550383 -0.092765585 0.12850803
0.066949122 -0.093440741 0.12825717
0.067626126 -0.093286291 0.12812877
0.068304069 -0.093131855 0.12800035
0.068957217 -0.093054622 0.12793614
0.069584869 -0.093054622 0.12793614
0.070264906 -0.092900217 0.12780775
0.070919462 -0.092822984 0.12774354
0.071547814 -0.092822984 0.12774354
0.072176166 -0.092822984 0.12774354
0.072750241 -0.092977419 0.12787196
0.073378131 -0.092977419 0.12787196
0.074006014 -0.092977419 0.12787196
0.074606061 -0.093054622 0.12793614
0.067600869 -0.093806654 0.1277498
0.068355061 -0.0934214 0.12742797
0.069008671 -0.093344361 0.12736361
0.069636784 -0.093344361 0.12736361
0.070291109 -0.093267292 0.12729923
0.070972323 -0.093113184 0.12717049
0.071654484 -0.092959076 0.12704174
0.072203062 -0.093190253 0.12723486
0.072804518 -0.093267292 0.12729923
0.07343287 -0.093267292 0.12729923
0.074006014 -0.0934214 0.12742797
0.067853481 -0.093480945 0.12666132
0.068635523 -0.09301962 0.12627411
0.069265977 -0.09301962 0.12627411
0.069922395 -0.092942744 0.12620957
0.070579298 -0.09286584 0.12614504
0.07121022 -0.09286584 0.12614504
0.071787819 -0.09301962 0.12627411
0.072364479 -0.0931734 0.12640318
0.072913058 -0.093404055 0.12659676
0.073514976 -0.093480945 0.12666132
0.074088827 -0.093634725 0.12679039
0.068712004 -0.093235269 0.12563421
0.069343165 -0.093235269 0.12563421
0.070000298 -0.093158528 0.12556949
0.070657894 -0.093081817 0.12550482
0.071289517 -0.093081817 0.12550482
0.071894489 -0.093158528 0.12556949
0.072472081 -0.093311965 0.12569889
0.072994463 -0.09361887 0.12595771
0.073597088 -0.093695566 0.1260224
0.070467658 -0.092226982 0.12395546
0.070972271 -0.092609778 0.1242798
0.071474545 -0.092992559 0.12460414
0.072134487 -0.092915997 0.12453926
0.073184408 -0.09352845 0.12505819
0.069672339 -0.090228736 0.1197312
0.069376811 -0.089622959 0.11835708
0.069823913 -0.090230092 0.11888129
0.070394747 -0.090457782 0.11907789
0.071015634 -0.090533674 0.11914341
0.071636058 -0.090609565 0.11920892
0.072203614 -0.09083724 0.11940552
0.072796188 -0.090989038 0.11953658
0.073494509 -0.09083724 0.11940552
0.069501951 -0.089703351 0.11756955
0.070000745 -0.090157717 0.11796372
0.07054773 -0.090460643 0.1182265
0.071118556 -0.090687811 0.11842357
0.071739912 -0.090763554 0.11848927
0.072334602 -0.090915009 0.11862066
0.072954789 -0.090990737 0.11868635
0.07365451 -0.090839282 0.11855495
0.074247569 -0.090990737 0.11868635
0.069049932 -0.089558735 0.11658281
0.069627091 -0.089785427 0.11678039
0.070127055 -0.09023881 0.11717553
0.070649713 -0.090616614 0.11750482
0.071298666 -0.090616614 0.11750482
0.071921661 -0.090692177 0.1175707
0.072518006 -0.09084329 0.11770241
0.073219113 -0.090692177 0.1175707
0.073841184 -0.090767741 0.11763655
0.068569608 -0.089492172 0.11565943
0.069149107 -0.089718357 0.1158575
0.069727205 -0.089944541 0.11605556
0.07027863 -0.090246126 0.11631969
0.07085368 -0.090472341 0.11651775
0.071504503 -0.090472341 0.11651775
0.072103426 -0.090623111 0.11664979
0.072701395 -0.09077391 0.11678185
0.073298417 -0.090924695 0.11691388
0.073947854 -0.090924695 0.11691388
0.068667844 -0.089653611 0.1149323
0.069248281 -0.089879289 0.11513087
0.069827311 -0.090104997 0.11532946
0.070430197 -0.090255469 0.11546184
0.071057647 -0.090330675 0.11552802
0.071633168 -0.090556368 0.11572659
0.072233245 -0.09070684 0.11585897
0.07280618 -0.090932548 0.11605754
0.073430583 -0.091007754 0.11612374
0.074081182 -0.091007754 0.11612374
0.068815202 -0.089666218 0.11407115
0.069372252 -0.089966491 0.11433658
0.069952451 -0.090191677 0.11453563
0.070607036 -0.090191677 0.11453563
0.071185127 -0.090416893 0.11473471
0.071761817 -0.090642095 0.11493376
0.072363064 -0.090792209 0.11506648
0.072937183 -0.09101741 0.11526555
0.073536314 -0.091167539 0.11539826
0.074161187 -0.091242626 0.11546463
0.074812494 -0.091242626 0.11546463
0.06832926 -0.089605942 0.11314148
0.068913437 -0.089830667 0.11334105
0.069545805 -0.08990556 0.11340757
0.07010261 -0.090205148 0.11367366
0.070758604 -0.090205148 0.11367366
0.071312606 -0.090504766 0.11393975
0.0719162 -0.090654537 0.11407277
0.072492883 -0.090879261 0.11427234
0.073068172 -0.091103956 0.1144719
0.073694907 -0.091178864 0.11453845
0.074321188 -0.091253743 0.11460495
0.068402231 -0.089846939 0.11247624
0.069011673 -0.089996397 0.11260961
0.06964498 -0.090071127 0.11267629
0.07022775 -0.090295345 0.11287637
0.070859656 -0.090370074 0.11294305
0.071465589 -0.090519547 0.11307642
0.072070576 -0.090669006 0.1132098
0.072622709 -0.090967953 0.11347656
0.073225372 -0.091117397 0.11360991
0.073853508 -0.091192141 0.11367661
0.074454524 -0.091341615 0.11380999
0.068523854 -0.089939758 0.11167631
0.069109917 -0.090163469 0.11187686
0.069719359 -0.090312615 0.11201057
0.070352897 -0.090387166 0.1120774
0.070985958 -0.090461731 0.11214426
0.071542069 -0.090760022 0.11241169
0.072173499 -0.090834588 0.11247854
0.072752535 -0.091058284 0.11267908
0.07335636 -0.09120743 0.11281279
0.073959239 -0.091356561 0.11294651
0.068572506 -0.090257466 0.11107577
0.069208153 -0.090331852 0.11114277
0.069843322 -0.090406269 0.11120979
0.070427977 -0.090629473 0.11141086
0.07108701 -0.090629473 0.11141086
0.071695052 -0.090778291 0.11154489
0.072302148 -0.090927079 0.11167893
0.07290832 -0.091075897 0.11181296
0.073487349 -0.091299102 0.11201403
0.074144274 -0.091299102 0.11201403
0.068742782 -0.090204641 0.11013864
0.069380067 -0.090278864 0.11020581
0.069992088 -0.090427339 0.11034019
0.07060317 -0.090575814 0.11047457
0.07121332 -0.090724304 0.11060894
0.071848027 -0.090798512 0.11067611
0.072456531 -0.090947002 0.11081047
0.073038138 -0.09116973 0.11101204
0.073670745 -0.091243953 0.11107922
0.068888739 -0.090228185 0.10926655
0.069527417 -0.090302259 0.1093339
0.070165642 -0.090376332 0.10940126
0.070753336 -0.090598539 0.10960329
0.071364895 -0.090746686 0.10973799
0.071975507 -0.090894833 0.1098727
0.07258518 -0.091042981 0.11000741
0.07319393 -0.091191128 0.11014211
0.073827937 -0.091265187 0.11020944
0.069083333 -0.090105921 0.10825744
0.06969934 -0.090253726 0.10839248
0.070339195 -0.09032765 0.10845999
0.070928529 -0.09054935 0.10866253
0.071516462 -0.090771094 0.10886508
0.072153986 -0.090844989 0.1089326
0.072739564 -0.091066688 0.10913514
0.073401645 -0.091066688 0.10913514
0.074011326 -0.091214508 0.10927017
0.069204964 -0.090207532 0.10744873
0.069871254 -0.090207532 0.10744873
0.070487961 -0.090355009 0.10758407
0.071078695 -0.090576246 0.10778713
0.071693301 -0.090723708 0.10792249
0.072332457 -0.090797469 0.10799018
0.072919682 -0.091018677 0.1081932
0.073557429 -0.091092438 0.1082609
0.069350913 -0.09023723 0.10657053
0.070018604 -0.09023723 0.10657053
0.070661515 -0.090310797 0.10663836
0.071253896 -0.090531513 0.10684189
0.071870133 -0.090678662 0.10697758
0.072510928 -0.090752259 0.10704544
0.073765151 -0.09097296 0.10724898
0.069496863 -0.09026891 0.1056903
0.070165962 -0.09026891 0.1056903
0.070810273 -0.090342298 0.10575831
0.071429089 -0.090489119 0.10589434
0.0720217 -0.090709358 0.1060984
0.072689399 -0.090709358 0.1060984
0.073279902 -0.090929583 0.10630241
0.069667138 -0.090229318 0.10473993
0.07031332 -0.090302557 0.10480811
0.070983827 -0.090302557 0.10480811
0.071579248 -0.090522304 0.10501266
0.072198533 -0.090668797 0.10514902
0.07286787 -0.090668797 0.10514902
0.073485747 -0.090815261 0.10528535
0.074154615 -0.090815261 0.10528535
0.069189124 -0.09011896 0.10371891
0.069813095 -0.090265125 0.10385559
0.070460677 -0.090338215 0.10392395
0.071132585 -0.090338215 0.10392395
0.071779475 -0.090411291 0.10399228
0.07240063 -0.090557456 0.10412897
0.073046349 -0.090630502 0.10419729
0.073691584 -0.090703592 0.10426566
0.069309577 -0.090230018 0.10290076
0.069983363 -0.090230018 0.10290076
0.070632592 -0.090302944 0.10296927
0.071330935 -0.090230018 0.10290076
0.071954668 -0.090375856 0.10303777
0.072602727 -0.090448752 0.10310628
0.073275812 -0.090448752 0.10310628
0.07394889 -0.090448752 0.10310628
0.069454126 -0.090269968 0.10201228
0.07012932 -0.090269968 0.10201228
0.070804507 -0.090269968 0.10201228
0.071454905 -0.09034273 0.10208096
0.072104834 -0.090415463 0.10214961
0.072779559 -0.090415463 0.10214961
0.073428787 -0.090488225 0.1022183
0.074103266 -0.090488225 0.1022183
0.069598667 -0.09031193 0.10112181
0.070275269 -0.09031193 0.10112181
0.070927307 -0.090384498 0.10119063
0.071578868 -0.090457097 0.10125948
0.072229974 -0.090529665 0.10132831
0.072931126 -0.090457097 0.10125948
0.073581763 -0.090529665 0.10132831
0.074257657 -0.090529665 0.10132831
0.069041356 -0.090428278 0.10029835
0.069719121 -0.090428278 0.10029835
0.070396893 -0.090428278 0.10029835
0.0710501 -0.090500683 0.10036735
0.071727633 -0.090500683 0.10036735
0.072380133 -0.090573102 0.10043637
0.073057435 -0.090573102 0.10043637
0.073709242 -0.090645522 0.10050537
0.074386306 -0.090645522 0.10050537
0.06916064 -0.090546265 0.099473238
0.069815487 -0.090618521 0.099542424
0.07049419 -0.090618521 0.099542424
0.071172893 -0.090618521 0.099542424
0.071826808 -0.090690777 0.099611565
0.07250528 -0.090690777 0.099611565
0.073158488 -0.090763032 0.099680766
0.073836721 -0.090763032 0.099680766
0.07454069 -0.090690777 0.099611565
0.068576187 -0.090738028 0.098715812
0.069279924 -0.090665936 0.098646462
0.069960035 -0.090665936 0.098646462
0.070640147 -0.090665936 0.098646462
0.071271136 -0.09081009 0.098785147
0.071950771 -0.09081009 0.098785147
0.072630413 -0.09081009 0.098785147
0.073310055 -0.09081009 0.098785147
0.073938712 -0.090954274 0.098923817
0.074617878 -0.090954274 0.098923817
0.069375351 -0.09085916 0.097887546
0.070080489 -0.090787247 0.097818047
0.070737444 -0.09085916 0.097887546
0.071393929 -0.090931088 0.09795706
0.072074741 -0.090931088 0.09795706
0.072755553 -0.090931088 0.09795706
0.073385842 -0.091074929 0.098096073
0.074066184 -0.091074929 0.098096073
0.074797988 -0.090931088 0.09795706
0.069518492 -0.090910226 0.096987978
0.070200935 -0.090910226 0.096987978
0.070883393 -0.090910226 0.096987978
0.071541287 -0.090981975 0.097057641
0.072198704 -0.091053739 0.097127318
0.072880685 -0.091053739 0.097127318
0.073562674 -0.091053739 0.097127318
0.074193664 -0.091197252 0.097266644
0.074926637 -0.091053739 0.097127318
0.069001392 -0.090891674 0.096016586
0.069685481 -0.090891674 0.096016586
0.070369571 -0.090891674 0.096016586
0.071029343 -0.090963259 0.096086398
0.071688637 -0.091034859 0.096156254
0.072322682 -0.091178015 0.096295893
0.073030859 -0.09110643 0.096226066
0.073714249 -0.09110643 0.096226066
0.07437215 -0.091178015 0.096295893
0.068481021 -0.090875447 0.095042869
0.069119513 -0.091018274 0.095182836
0.069852479 -0.090875447 0.095042869
0.070538208 -0.090875447 0.095042869
0.071150973 -0.091089696 0.095252857
0.071811438 -0.091161117 0.095322847
0.072471432 -0.091232553 0.095392853
0.073181026 -0.091161117 0.095322847
0.073840559 -0.091232553 0.095392853
0.074525118 -0.091232553 0.095392853
0.068597965 -0.091004029 0.094207138
0.069284871 -0.091004029 0.094207138
0.06997177 -0.091004029 0.094207138
0.070658669 -0.091004029 0.094207138
0.071321249 -0.091075301 0.094277307
0.071934238 -0.091289058 0.094487816
0.072620198 -0.091289058 0.094487816
0.073306166 -0.091289058 0.094487816
0.073992133 -0.091289058 0.094487816
0.068738289 -0.091063201 0.093299463
0.069450229 -0.090992108 0.093229115
0.070138767 -0.090992108 0.093229115
0.07080321 -0.091063201 0.093299463
0.071467198 -0.091134295 0.093369782
0.072081596 -0.091347545 0.093580768
0.072768964 -0.091347545 0.093580768
0.073456332 -0.091347545 0.093580768
0.074118435 -0.091418669 0.093651101
0.068925403 -0.090982497 0.092248783
0.069639206 -0.090911582 0.092178285
0.070305765 -0.090982497 0.092248783
0.070995942 -0.090982497 0.092248783
0.071637474 -0.091124356 0.092389777
0.072278067 -0.091266215 0.092530772
0.072992101 -0.091195285 0.092460245
0.073631525 -0.091337115 0.092601255
0.068350993 -0.091116741 0.091407448
0.069065735 -0.091045976 0.091336772
0.06982819 -0.090833694 0.091124788
0.070472762 -0.09097521 0.091266125
0.071164578 -0.09097521 0.091266125
0.071832076 -0.091045976 0.091336772
0.072499096 -0.091116741 0.091407448
0.073190451 -0.091116741 0.091407448
0.073831744 -0.091258273 0.091548771
0.069206059 -0.091111436 0.090422809
0.069969922 -0.090899646 0.090210304
0.070663616 -0.090899646 0.090210304
0.071333215 -0.090970248 0.090281144
0.072026677 -0.090970248 0.090281144
0.072671011 -0.091111436 0.090422809
0.073364004 -0.091111436 0.090422809
0.074031964 -0.091182038 0.090493605
0.074699461 -0.09125264 0.090564445
0.069393165 -0.091038018 0.089364842
0.070111655 -0.090967596 0.089293852
0.070806749 -0.090967596 0.089293852
0.071477763 -0.091038018 0.089364842
0.072172627 -0.091038018 0.089364842
0.07286749 -0.091038018 0.089364842
0.073537558 -0.091108456 0.089435846
0.074232183 -0.091108456 0.089435846
0.069580272 -0.090967268 0.088304237
0.070277013 -0.090967268 0.088304237
0.070973746 -0.090967268 0.088304237
0.0716464 -0.091037527 0.088375375
0.072342902 -0.091037527 0.088375375
0.073088527 -0.090896994 0.088233069
0.073760696 -0.090967268 0.088304237
0.070513241 -0.09075895 0.087098315
0.071188457 -0.090829059 0.087169647
0.071887299 -0.090829059 0.087169647
0.072586149 -0.090829059 0.087169647
0.073260441 -0.090899155 0.087240964
0.07385987 -0.091179535 0.087526262
0.070820332 -0.090344176 0.085674644
0.071427032 -0.090623885 0.085960582
0.072080031 -0.090763748 0.086103573
0.072780758 -0.090763748 0.086103573
0.073407792 -0.090973571 0.086318046
0.071080178 -0.090073213 0.084389955
0.071689457 -0.090352282 0.084676549
0.07229685 -0.090631336 0.084963188
0.0729267 -0.090840653 0.085178167
0.073604271 -0.09091042 0.085249811
0.07129278 -0.089945123 0.083245263
0.071904168 -0.090223506 0.083532542
0.073315911 -0.090223506 0.083532542
0 0 0 1 0 0 0 1 0 0 0 1 0 0 0 0 0 488 1 0 0
