ply
format ascii 1.0
comment PCL generated
element vertex 569
property float x
property float y
property float z
element camera 1
property float view_px
property float view_py
property float view_pz
property float x_axisx
property float x_axisy
property float x_axisz
property float y_axisx
property float y_axisy
property float y_axisz
property float z_axisx
property float z_axisy
property float z_axisz
property float focal
property float scalex
property float scaley
property float centerx
property float centery
property int viewportx
property int viewporty
property float k1
property float k2
end_header
0.069111593 -0.088588044 0.13155422
0.069766618 -0.088509321 0.13149148
0.070343509 -0.088666752 0.13161692
0.070972323 -0.088666752 0.13161692
0.067853481 -0.089032859 0.1311094
0.068457045 -0.089111388 0.13117227
0.069085866 -0.089111388 0.13117227
0.069740646 -0.089032859 0.1311094
0.070317306 -0.089189947 0.13123517
0.070919462 -0.089268491 0.13129804
0.071547814 -0.089268491 0.13129804
0.072149262 -0.089347035 0.13136092
0.072750241 -0.089425579 0.1314238
0.067174368 -0.089634418 0.13079068
0.067802958 -0.089634418 0.13079068
0.068457045 -0.089556038 0.13072763
0.069085866 -0.089556038 0.13072763
0.069714688 -0.089556038 0.13072763
0.070317306 -0.089634418 0.13079068
0.070919462 -0.089712799 0.13085373
0.071547814 -0.089712799 0.13085373
0.072149262 -0.089791179 0.13091677
0.072723113 -0.089947909 0.13104284
0.073323391 -0.090026304 0.1311059
0.066520996 -0.090157107 0.13040942
0.067149349 -0.090157107 0.13040942
0.067802958 -0.090078905 0.13034621
0.068431549 -0.090078905 0.13034621
0.069060132 -0.090078905 0.13034621
0.069662757 -0.090157107 0.13040942
0.070291109 -0.090157107 0.13040942
0.070919462 -0.090157107 0.13040942
0.071521141 -0.090235338 0.13047263
0.072122365 -0.090313539 0.13053584
0.072723113 -0.090391725 0.13059902
0.073296025 -0.090548158 0.13072546
0.073895596 -0.090626389 0.13078867
0.066520996 -0.090601414 0.1299651
0.067149349 -0.090601414 0.1299651
0.067752436 -0.090679482 0.13002849
0.068406053 -0.090601414 0.1299651
0.069034405 -0.090601414 0.1299651
0.069662757 -0.090601414 0.1299651
0.070291109 -0.090601414 0.1299651
0.070893019 -0.090679482 0.13002849
0.071494475 -0.090757519 0.13009186
0.072068557 -0.090913609 0.1302186
0.072668836 -0.090991646 0.13028197
0.073296025 -0.090991646 0.13028197
0.073895596 -0.091069698 0.13034534
0.07452254 -0.091069698 0.13034534
0.066496201 -0.091123626 0.12958434
0.067124315 -0.091123626 0.12958434
0.067752436 -0.091123626 0.12958434
0.068380557 -0.091123626 0.12958434
0.069008671 -0.091123626 0.12958434
0.069636784 -0.091123626 0.12958434
0.070238717 -0.091201499 0.12964788
0.070866592 -0.091201499 0.12964788
0.071467817 -0.091279358 0.12971139
0.072068557 -0.091357261 0.12977494
0.072641701 -0.091513023 0.12990203
0.073268652 -0.091513023 0.12990203
0.073895596 -0.091513023 0.12990203
0.074494705 -0.091590896 0.12996557
0.065843523 -0.091645479 0.1292039
0.066471405 -0.091645479 0.1292039
0.067099288 -0.091645479 0.1292039
0.067727178 -0.091645479 0.1292039
0.068355061 -0.091645479 0.1292039
0.068957217 -0.091723174 0.12926759
0.069610827 -0.091645479 0.1292039
0.070238717 -0.091645479 0.1292039
0.070840165 -0.091723174 0.12926759
0.071467817 -0.091723174 0.12926759
0.072068557 -0.091800898 0.12933129
0.072668836 -0.091878608 0.12939501
0.073268652 -0.091956347 0.12945871
0.073895596 -0.091956347 0.12945871
0.074494705 -0.092034042 0.12952241
0.075121418 -0.092034042 0.12952241
0.066471405 -0.092089459 0.12875992
0.067099288 -0.092089459 0.12875992
0.067701921 -0.09216699 0.12882377
0.068355061 -0.092089459 0.12875992
0.068982944 -0.092089459 0.12875992
0.069610827 -0.092089459 0.12875992
0.070238717 -0.092089459 0.12875992
0.070866592 -0.092089459 0.12875992
0.071467817 -0.09216699 0.12882377
0.072068557 -0.092244551 0.12888765
0.072668836 -0.092322096 0.12895152
0.073296025 -0.092322096 0.12895152
0.073895596 -0.092399657 0.1290154
0.07452254 -0.092399657 0.1290154
0.075149491 -0.092399657 0.1290154
0.066446617 -0.092610806 0.12837996
0.067074262 -0.092610806 0.12837996
0.067727178 -0.092533439 0.12831593
0.068355061 -0.092533439 0.12831593
0.068982944 -0.092533439 0.12831593
0.069610827 -0.092533439 0.12831593
0.070238717 -0.092533439 0.12831593
0.070866592 -0.092533439 0.12831593
0.071494475 -0.092533439 0.12831593
0.072095469 -0.092610806 0.12837996
0.072723113 -0.092610806 0.12837996
0.073323391 -0.092688203 0.128444
0.073923208 -0.092765585 0.12850803
0.07452254 -0.092842981 0.12857208
0.067099288 -0.092977419 0.12787196
0.067752436 -0.092900217 0.12780775
0.068380557 -0.092900217 0.12780775
0.069008671 -0.092900217 0.12780775
0.069636784 -0.092900217 0.12780775
0.070264906 -0.092900217 0.12780775
0.070972323 -0.092668533 0.12761512
0.071574479 -0.092745766 0.12767935
0.072095469 -0.093054622 0.12793614
0.072723113 -0.093054622 0.12793614
0.073350765 -0.093054622 0.12793614
0.073923208 -0.093209058 0.12806454
0.074550383 -0.093209058 0.12806454
0.067777701 -0.093267292 0.12729923
0.068406053 -0.093267292 0.12729923
0.069085866 -0.093113184 0.12717049
0.069714688 -0.093113184 0.12717049
0.070343509 -0.093113184 0.12717049
0.070972323 -0.093113184 0.12717049
0.071574479 -0.093190253 0.12723486
0.072203062 -0.093190253 0.12723486
0.072831646 -0.093190253 0.12723486
0.073405497 -0.093344361 0.12736361
0.073950805 -0.093575507 0.1275567
0.068030313 -0.092942744 0.12620957
0.068635523 -0.09301962 0.12627411
0.069317438 -0.09286584 0.12614504
0.069948368 -0.09286584 0.12614504
0.070553094 -0.092942744 0.12620957
0.071183786 -0.092942744 0.12620957
0.071787819 -0.09301962 0.12627411
0.072337575 -0.093250275 0.12646769
0.072913058 -0.093404055 0.12659676
0.07348761 -0.093557835 0.12672584
0.074033618 -0.093788505 0.12691946
0.068839483 -0.092851654 0.12531072
0.069471814 -0.092851654 0.12531072
0.070104152 -0.092851654 0.12531072
0.070710286 -0.09292838 0.1253754
0.071315952 -0.093005091 0.12544011
0.071974486 -0.09292838 0.1253754
0.072525889 -0.093158528 0.12556949
0.073103003 -0.093311965 0.12569889
0.073679194 -0.093465418 0.12582831
0.069145441 -0.092380106 0.12408519
0.069857769 -0.092150435 0.12389061
0.070415728 -0.092380106 0.12408519
0.071103275 -0.092226982 0.12395546
0.071712442 -0.092303559 0.12402034
0.072321162 -0.092380106 0.12408519
0.0728487 -0.092686325 0.12434466
0.073428631 -0.09283945 0.12447439
0.070857123 -0.091530591 0.12253056
0.071443848 -0.091683373 0.12266064
0.072082505 -0.091683373 0.12266064
0.070398107 -0.091448948 0.12162226
0.071012907 -0.091525167 0.12168746
0.071601048 -0.091677606 0.12181784
0.072320394 -0.091448948 0.12162226
0.071194664 -0.091445684 0.12077698
0.071836837 -0.091445684 0.12077698
0.072584733 -0.091141433 0.12051554
0.073254503 -0.091065377 0.12045018
0.073951654 -0.090913266 0.12031946
0.0701143 -0.09129259 0.11979868
0.070784062 -0.091216713 0.11973315
0.071428344 -0.091216713 0.11973315
0.072072625 -0.091216713 0.11973315
0.072743326 -0.091140836 0.11966763
0.073387839 -0.091140836 0.11966763
0.074059255 -0.09106493 0.1196021
0.069672339 -0.091142192 0.11881775
0.070343763 -0.091066465 0.11875202
0.070989907 -0.091066465 0.11875202
0.071610093 -0.091142192 0.11881775
0.072282217 -0.091066465 0.11875202
0.072928362 -0.091066465 0.11875202
0.073574513 -0.091066465 0.11875202
0.074220672 -0.091066465 0.11875202
0.069251671 -0.090918869 0.11776827
0.069874443 -0.090994418 0.11783411
0.07054773 -0.090918869 0.11776827
0.071170017 -0.090994418 0.11783411
0.071817815 -0.090994418 0.11783411
0.072465606 -0.090994418 0.11783411
0.073113389 -0.090994418 0.11783411
0.07376118 -0.090994418 0.11783411
0.070051275 -0.090924695 0.11691388
0.070700705 -0.090924695 0.11691388
0.071324393 -0.09100011 0.11697993
0.071973592 -0.09100011 0.11697993
0.072596595 -0.091075495 0.11704594
0.073245555 -0.091075495 0.11704594
0.073921181 -0.09100011 0.11697993
0.069677144 -0.090556368 0.11572659
0.070253365 -0.090782076 0.11592516
0.070879176 -0.090857297 0.11599134
0.071504503 -0.090932548 0.11605754
0.072103426 -0.09108299 0.11618991
0.072753794 -0.09108299 0.11618991
0.073377714 -0.091158226 0.11625612
0.074027851 -0.091158226 0.11625612
0.074651085 -0.091233462 0.11632229
0.069223486 -0.090416893 0.11473471
0.06977725 -0.090717167 0.11500014
0.070404939 -0.090792209 0.11506648
0.071032159 -0.090867266 0.11513284
0.071633168 -0.09101741 0.11526555
0.072233245 -0.091167539 0.11539826
0.072858579 -0.091242626 0.11546463
0.073483452 -0.091317669 0.11553097
0.074107848 -0.091392756 0.11559734
0.074758686 -0.091392756 0.11559734
0.069372252 -0.090429857 0.11387321
0.069977477 -0.090579659 0.11400625
0.070607036 -0.090654537 0.11407277
0.07121063 -0.090804338 0.11420581
0.071787544 -0.091029063 0.11440539
0.072389022 -0.091178864 0.11453845
0.073015779 -0.091253743 0.11460495
0.073642053 -0.091328636 0.11467147
0.074267857 -0.091403559 0.11473799
0.074839398 -0.091628253 0.11493756
0.069545805 -0.090370074 0.11294305
0.070177697 -0.090444818 0.11300975
0.070783868 -0.090594262 0.1131431
0.071389101 -0.090743735 0.11327648
0.071941927 -0.091042683 0.11354323
0.072544813 -0.091192141 0.11367661
0.073146768 -0.091341615 0.11380999
0.073747776 -0.091491088 0.11394337
0.074374527 -0.091565818 0.11401004
0.068718463 -0.089343205 0.11114147
0.069159031 -0.090014324 0.11174315
0.069694564 -0.090387166 0.1120774
0.070302837 -0.090536296 0.11221112
0.070884913 -0.090760022 0.11241169
0.071516581 -0.090834588 0.11247854
0.072122037 -0.090983734 0.11261223
0.072726563 -0.091132864 0.11274594
0.07330396 -0.091356561 0.11294651
0.073932804 -0.091431141 0.11301337
0.074561194 -0.091505706 0.1130802
0.069010362 -0.088918209 0.10986944
0.069281831 -0.090108648 0.11094174
0.069892913 -0.090257466 0.11107577
0.070503056 -0.090406269 0.11120979
0.07108701 -0.090629473 0.11141086
0.071669556 -0.090852663 0.1116119
0.072250687 -0.091075897 0.11181296
0.072856389 -0.0912247 0.11194701
0.073461153 -0.091373518 0.11208105
0.074091405 -0.09144792 0.11214805
0.069083333 -0.0891653 0.10919808
0.06950286 -0.089907676 0.10986991
0.070066467 -0.090204641 0.11013864
0.070653223 -0.090427339 0.11034019
0.071263842 -0.090575814 0.11047457
0.071848027 -0.090798512 0.11067611
0.07240507 -0.091095477 0.11094485
0.073012173 -0.091243953 0.11107922
0.073644549 -0.091318175 0.11114639
0.074302875 -0.091318175 0.11114639
0.068659119 -0.088894904 0.10805425
0.069204964 -0.089265242 0.10839102
0.069723897 -0.089709684 0.10879511
0.070240021 -0.090154126 0.10919921
0.070878476 -0.090228185 0.10926655
0.071390152 -0.090672627 0.10967065
0.072026506 -0.090746686 0.10973799
0.07258518 -0.091042981 0.11000741
0.073219895 -0.091117054 0.11007473
0.073854133 -0.091191128 0.11014211
0.074487902 -0.091265187 0.11020944
0.068134807 -0.08892341 0.1071772
0.068707302 -0.089219049 0.10744727
0.069277935 -0.089514673 0.10771732
0.069871254 -0.089736387 0.10791987
0.07043837 -0.090032011 0.10818993
0.071003608 -0.09032765 0.10845999
0.071592249 -0.09054935 0.10866253
0.072204977 -0.090697169 0.10879757
0.072816752 -0.090844989 0.1089326
0.07342761 -0.090992808 0.10906763
0.074063726 -0.091066688 0.10913514
0.06820637 -0.089175165 0.10650121
0.068803668 -0.089396372 0.10670424
0.069375239 -0.089691341 0.10697497
0.070018604 -0.089765102 0.10704266
0.070587136 -0.09006004 0.10731336
0.071203835 -0.090207532 0.10744873
0.071769081 -0.090502486 0.10771945
0.072383448 -0.090649977 0.10785481
0.07299687 -0.090797469 0.10799018
0.07360936 -0.090944946 0.10812555
0.074273311 -0.090944946 0.10812555
0.06827794 -0.089427888 0.1058242
0.068875939 -0.089648619 0.10602775
0.069472544 -0.089869335 0.10623127
0.070092291 -0.090016484 0.10636698
0.070735887 -0.090090081 0.10643482
0.071379028 -0.090163648 0.10650267
0.071920656 -0.090531513 0.10684189
0.07256192 -0.090605095 0.10690975
0.073202714 -0.090678662 0.10697758
0.07384304 -0.090752259 0.10704544
0.074509099 -0.090752259 0.10704544
0.067702159 -0.089608222 0.10507821
0.06834951 -0.08968161 0.1051462
0.068972304 -0.089828432 0.10528223
0.069618486 -0.08990185 0.10535026
0.070215084 -0.090122074 0.10555428
0.070884652 -0.090122074 0.10555428
0.071504168 -0.09026891 0.1056903
0.072097488 -0.090489119 0.10589434
0.072740391 -0.090562537 0.10596237
0.073382825 -0.09063594 0.10603037
0.074024789 -0.090709358 0.1060984
0.074692488 -0.090709358 0.1060984
0.067101106 -0.089863107 0.10439906
0.067773022 -0.089863107 0.10439906
0.068444937 -0.089863107 0.10439906
0.069044575 -0.090082839 0.10460359
0.069691464 -0.090156063 0.10467175
0.070362441 -0.090156063 0.10467175
0.071008623 -0.090229318 0.10473993
0.071679361 -0.090229318 0.10473993
0.072299577 -0.090375811 0.10487629
0.072918862 -0.090522304 0.10501266
0.073562935 -0.090595543 0.10508083
0.074232511 -0.090595543 0.10508083
0.067796648 -0.090265125 0.10385559
0.068492651 -0.09019205 0.10378726
0.069165029 -0.09019205 0.10378726
0.069813095 -0.090265125 0.10385559
0.070460677 -0.090338215 0.10392395
0.071157381 -0.090265125 0.10385559
0.071804494 -0.090338215 0.10392395
0.072476409 -0.090338215 0.10392395
0.073122837 -0.090411291 0.10399228
0.073743045 -0.090557456 0.10412897
0.074466191 -0.090411291 0.10399228
0.065826051 -0.090594575 0.10324329
0.066498667 -0.090594575 0.10324329
0.067171276 -0.090594575 0.10324329
0.067891143 -0.090448752 0.10310628
0.068564221 -0.090448752 0.10310628
0.069237307 -0.090448752 0.10310628
0.069934718 -0.090375856 0.10303777
0.070632592 -0.090302944 0.10296927
0.071281351 -0.090375856 0.10303777
0.071954668 -0.090375856 0.10303777
0.072627984 -0.090375856 0.10303777
0.073301308 -0.090375856 0.10303777
0.07394889 -0.090448752 0.10310628
0.074647941 -0.090375856 0.10303777
0.065871887 -0.090924695 0.10263033
0.066568121 -0.090851963 0.10256167
0.067264825 -0.090779215 0.102493
0.067962006 -0.090706453 0.10242432
0.068635792 -0.090706453 0.10242432
0.069381848 -0.090488225 0.1022183
0.070080668 -0.090415463 0.10214961
0.070755392 -0.090415463 0.10214961
0.071454905 -0.09034273 0.10208096
0.072129861 -0.09034273 0.10208096
0.072779559 -0.090415463 0.10214961
0.073479779 -0.09034273 0.10208096
0.074154727 -0.09034273 0.10208096
0.07482969 -0.09034273 0.10208096
0.065917723 -0.091255486 0.10201673
0.066637583 -0.091110319 0.10187905
0.067358382 -0.090965167 0.10174136
0.068056501 -0.090892553 0.10167252
0.068778932 -0.090747401 0.10153484
0.069502302 -0.090602249 0.10139717
0.070202291 -0.090529665 0.10132831
0.070902742 -0.090457097 0.10125948
0.071603663 -0.090384498 0.10119063
0.072280027 -0.090384498 0.10119063
0.072956391 -0.090384498 0.10119063
0.073607258 -0.090457097 0.10125948
0.074309118 -0.090384498 0.10119063
0.074985482 -0.090384498 0.10119063
0.066009402 -0.091442108 0.10126442
0.066730201 -0.091297269 0.10112642
0.067475319 -0.09108001 0.1009194
0.068174608 -0.09100759 0.10085039
0.068898216 -0.090862751 0.10071237
0.06957458 -0.090862751 0.10071237
0.070323914 -0.090645522 0.10050537
0.071025535 -0.090573102 0.10043637
0.071727633 -0.090500683 0.10036735
0.072380133 -0.090573102 0.10043637
0.073057435 -0.090573102 0.10043637
0.073760234 -0.090500683 0.10036735
0.074437767 -0.090500683 0.10036735
0.075115301 -0.090500683 0.10036735
0.066055246 -0.091774538 0.10064915
0.066799663 -0.091557786 0.10044163
0.067545488 -0.091341019 0.10023411
0.068245478 -0.091268778 0.10016496
0.068993635 -0.091052026 0.099957451
0.069695033 -0.09097977 0.099888265
0.070445538 -0.090763032 0.099680766
0.071148336 -0.090690777 0.099611565
0.071851596 -0.090618521 0.099542424
0.07250528 -0.090690777 0.099611565
0.073183753 -0.090690777 0.099611565
0.073862225 -0.090690777 0.099611565
0.07454069 -0.090690777 0.099611565
0.075219162 -0.090690777 0.099611565
0.066078171 -0.092179701 0.10010254
0.066822819 -0.091963455 0.099894524
0.067568876 -0.091747209 0.099686533
0.068292722 -0.091603041 0.099547848
0.069041356 -0.09138678 0.099339843
0.069791399 -0.09117052 0.099131823
0.070542842 -0.090954274 0.098923817
0.071271136 -0.09081009 0.098785147
0.071901187 -0.090954274 0.098923817
0.07258036 -0.090954274 0.098923817
0.073310055 -0.09081009 0.098785147
0.073938712 -0.090954274 0.098923817
0.074669339 -0.09081009 0.098785147
0.066124007 -0.092513308 0.099486113
0.066892281 -0.092225641 0.099208102
0.067662433 -0.091937944 0.098930091
0.068434462 -0.091650277 0.098652065
0.069136783 -0.091578364 0.098582581
0.06993594 -0.09121877 0.098235071
0.070640147 -0.091146842 0.098165557
0.071344808 -0.091074929 0.098096073
0.072074741 -0.090931088 0.09795706
0.072705492 -0.091074929 0.098096073
0.073385842 -0.091074929 0.098096073
0.074066184 -0.091074929 0.098096073
0.074746527 -0.091074929 0.098096073
0.06628444 -0.092488796 0.098520681
0.067054361 -0.092201784 0.098242015
0.067826152 -0.091914758 0.097963333
0.068599813 -0.091627762 0.097684637
0.069303781 -0.091556013 0.097614989
0.070080489 -0.091268986 0.097336307
0.070834741 -0.091053739 0.097127318
0.071516722 -0.091053739 0.097127318
0.072198704 -0.091053739 0.097127318
0.072905719 -0.090981975 0.097057641
0.073562674 -0.091053739 0.097127318
0.074193664 -0.091197252 0.097266644
0.074926637 -0.091053739 0.097127318
0.067262746 -0.092037082 0.09713392
0.068036646 -0.091750711 0.096854568
0.068788789 -0.091535971 0.096645087
0.069494635 -0.09146437 0.096575245
0.070273213 -0.091178015 0.096295893
0.070956372 -0.091178015 0.096295893
0.071639523 -0.091178015 0.096295893
0.072322682 -0.091178015 0.096295893
0.073030859 -0.09110643 0.096226066
0.073688991 -0.091178015 0.096295893
0.07437215 -0.091178015 0.096295893
0.068954147 -0.091518253 0.095672861
0.069685481 -0.091375396 0.095532864
0.07044185 -0.091161117 0.095322847
0.071126647 -0.091161117 0.095322847
0.07178688 -0.091232553 0.095392853
0.072471432 -0.091232553 0.095392853
0.073181026 -0.091161117 0.095322847
0.073840559 -0.091232553 0.095392853
0.074525118 -0.091232553 0.095392853
0.068481021 -0.091360331 0.094557986
0.06916675 -0.091360331 0.094557986
0.069876343 -0.091289058 0.094487816
0.070634574 -0.091075301 0.094277307
0.071272597 -0.091217816 0.094417647
0.071934238 -0.091289058 0.094487816
0.072644986 -0.091217816 0.094417647
0.073331185 -0.091217816 0.094417647
0.073992133 -0.091289058 0.094487816
0.074678101 -0.091289058 0.094487816
0.068003677 -0.091205388 0.09344013
0.068691514 -0.091205388 0.09344013
0.069402978 -0.091134295 0.093369782
0.070114903 -0.091063201 0.093299463
0.070779122 -0.091134295 0.093369782
0.071394227 -0.091347545 0.093580768
0.07213071 -0.091205388 0.09344013
0.072744168 -0.091418669 0.093651101
0.073456332 -0.091347545 0.093580768
0.074118435 -0.091418669 0.093651101
0.068258375 -0.090911582 0.092178285
0.068948783 -0.090911582 0.092178285
0.069639206 -0.090911582 0.092178285
0.070329614 -0.090911582 0.092178285
0.071020029 -0.090911582 0.092178285
0.071637474 -0.091124356 0.092389777
0.072278067 -0.091266215 0.092530772
0.072992101 -0.091195285 0.092460245
0.073656552 -0.091266215 0.092530772
0.074345797 -0.091266215 0.092530772
0.06846676 -0.090762943 0.091054142
0.069159284 -0.090762943 0.091054142
0.069851808 -0.090762943 0.091054142
0.070544325 -0.090762943 0.091054142
0.071212761 -0.090833694 0.091124788
0.071856402 -0.09097521 0.091266125
0.072523661 -0.091045976 0.091336772
0.073215246 -0.091045976 0.091336772
0.073881797 -0.091116741 0.091407448
0.074522629 -0.091258273 0.091548771
0.069299616 -0.090829059 0.090139478
0.070040792 -0.090687856 0.089997828
0.070687473 -0.090829059 0.090139478
0.071381398 -0.090829059 0.090139478
0.072051004 -0.090899646 0.090210304
0.072720133 -0.090970248 0.090281144
0.073364004 -0.091111436 0.090422809
0.074031964 -0.091182038 0.090493605
0.074699461 -0.09125264 0.090564445
0.069463328 -0.090826735 0.089151859
0.070158899 -0.090826735 0.089151859
0.070854463 -0.090826735 0.089151859
0.071550034 -0.090826735 0.089151859
0.072196953 -0.090967596 0.089293852
0.07286749 -0.091038018 0.089364842
0.073537558 -0.091108456 0.089435846
0.074232183 -0.091108456 0.089435846
0.070395119 -0.090615958 0.087948456
0.071069174 -0.090686202 0.088019595
0.07171867 -0.090826735 0.088161916
0.072391555 -0.090896994 0.088233069
0.073088527 -0.090896994 0.088233069
0.073760696 -0.090967268 0.088304237
0.070678599 -0.090268269 0.086599052
0.071307741 -0.090478584 0.086813033
0.071959578 -0.090618744 0.086955667
0.072610483 -0.09075895 0.087098315
0.073309556 -0.09075895 0.087098315
0.073983841 -0.090829059 0.087169647
0.070211753 -0.090064436 0.085388675
0.070962064 -0.089924589 0.085245684
0.071522452 -0.090344176 0.085674644
0.072128214 -0.090623885 0.085960582
0.072805077 -0.090693831 0.086032078
0.07348147 -0.090763748 0.086103573
0.070469029 -0.089794159 0.084103331
0.071151048 -0.089863911 0.084174976
0.071713306 -0.090282515 0.084604919
0.072320938 -0.090561569 0.084891543
0.072999679 -0.090631336 0.084963188
0.073702507 -0.090631336 0.084963188
0.070133857 -0.089179501 0.082455248
0.07077308 -0.089388296 0.082670689
0.071458139 -0.089457914 0.082742527
0.072142728 -0.089527503 0.082814336
0.072682306 -0.090014696 0.083317086
0.073364556 -0.090084314 0.08338891
0.074070893 -0.090084314 0.08338891
0 0 0 1 0 0 0 1 0 0 0 1 0 0 0 0 0 569 1 0 0
