ply
format ascii 1.0
comment PCL generated
element vertex 534
property float x
property float y
property float z
element camera 1
property float view_px
property float view_py
property float view_pz
property float x_axisx
property float x_axisy
property float x_axisz
property float y_axisx
property float y_axisy
property float y_axisz
property float z_axisx
property float z_axisy
property float z_axisz
property float focal
property float scalex
property float scaley
property float centerx
property float centery
property int viewportx
property int viewporty
property float k1
property float k2
end_header
0.069766618 -0.088509321 0.13149148
0.070395909 -0.088509321 0.13149148
0.070998751 -0.088588044 0.13155422
0.068457045 -0.089111388 0.13117227
0.069111593 -0.089032859 0.1311094
0.069740646 -0.089032859 0.1311094
0.070369706 -0.089032859 0.1311094
0.070998751 -0.089032859 0.1311094
0.071601145 -0.089111388 0.13117227
0.072203062 -0.089189947 0.13123517
0.067777701 -0.089712799 0.13085373
0.068431549 -0.089634418 0.13079068
0.069085866 -0.089556038 0.13072763
0.069740646 -0.089477658 0.13066459
0.070343509 -0.089556038 0.13072763
0.070945889 -0.089634418 0.13079068
0.071574479 -0.089634418 0.13079068
0.072149262 -0.089791179 0.13091677
0.072750241 -0.089869559 0.13097982
0.067124315 -0.090235338 0.13047263
0.067752436 -0.090235338 0.13047263
0.068406053 -0.090157107 0.13040942
0.069060132 -0.090078905 0.13034621
0.069688715 -0.090078905 0.13034621
0.070317306 -0.090078905 0.13034621
0.070945889 -0.090078905 0.13034621
0.071547814 -0.090157107 0.13040942
0.072149262 -0.090235338 0.13047263
0.072750241 -0.090313539 0.13053584
0.073350765 -0.090391725 0.13059902
0.073978417 -0.090391725 0.13059902
0.066446617 -0.090835541 0.13015521
0.067124315 -0.090679482 0.13002849
0.067752436 -0.090679482 0.13002849
0.068380557 -0.090679482 0.13002849
0.069008671 -0.090679482 0.13002849
0.069662757 -0.090601414 0.1299651
0.070317306 -0.090523377 0.12990174
0.070919462 -0.090601414 0.1299651
0.071494475 -0.090757519 0.13009186
0.072122365 -0.090757519 0.13009186
0.072723113 -0.090835541 0.13015521
0.073323391 -0.090913609 0.1302186
0.073923208 -0.090991646 0.13028197
0.066446617 -0.091279358 0.12971139
0.067074262 -0.091279358 0.12971139
0.067701921 -0.091279358 0.12971139
0.068355061 -0.091201499 0.12964788
0.068982944 -0.091201499 0.12964788
0.069636784 -0.091123626 0.12958434
0.070264906 -0.091123626 0.12958434
0.070893019 -0.091123626 0.12958434
0.071494475 -0.091201499 0.12964788
0.072122365 -0.091201499 0.12964788
0.072695971 -0.091357261 0.12977494
0.073323391 -0.091357261 0.12977494
0.073923208 -0.091435134 0.12983848
0.07452254 -0.091513023 0.12990203
0.066397026 -0.091878608 0.12939501
0.067049235 -0.091800898 0.12933129
0.067676648 -0.091800898 0.12933129
0.068329573 -0.091723174 0.12926759
0.068982944 -0.091645479 0.1292039
0.069610827 -0.091645479 0.1292039
0.070238717 -0.091645479 0.1292039
0.070893019 -0.09156777 0.1291402
0.071494475 -0.091645479 0.1292039
0.072095469 -0.091723174 0.12926759
0.072695971 -0.091800898 0.12933129
0.073296025 -0.091878608 0.12939501
0.073923208 -0.091878608 0.12939501
0.07452254 -0.091956347 0.12945871
0.066397026 -0.092322096 0.12895152
0.067049235 -0.092244551 0.12888765
0.067676648 -0.092244551 0.12888765
0.068304069 -0.092244551 0.12888765
0.068982944 -0.092089459 0.12875992
0.069610827 -0.092089459 0.12875992
0.070238717 -0.092089459 0.12875992
0.070893019 -0.092011914 0.12869605
0.071494475 -0.092089459 0.12875992
0.072095469 -0.09216699 0.12882377
0.072695971 -0.092244551 0.12888765
0.073323391 -0.092244551 0.12888765
0.073923208 -0.092322096 0.12895152
0.07452254 -0.092399657 0.1290154
0.067024209 -0.092765585 0.12850803
0.067676648 -0.092688203 0.128444
0.068329573 -0.092610806 0.12837996
0.068957217 -0.092610806 0.12837996
0.069636784 -0.092456073 0.1282519
0.070238717 -0.092533439 0.12831593
0.070893019 -0.092456073 0.1282519
0.071494475 -0.092533439 0.12831593
0.072122365 -0.092533439 0.12831593
0.072723113 -0.092610806 0.12837996
0.073323391 -0.092688203 0.128444
0.073950805 -0.092688203 0.128444
0.074550383 -0.092765585 0.12850803
0.067049235 -0.093131855 0.12800035
0.067651391 -0.093209058 0.12806454
0.068329573 -0.093054622 0.12793614
0.068982944 -0.092977419 0.12787196
0.069636784 -0.092900217 0.12780775
0.070291109 -0.092822984 0.12774354
0.070945889 -0.092745766 0.12767935
0.071574479 -0.092745766 0.12767935
0.072122365 -0.092977419 0.12787196
0.072723113 -0.093054622 0.12793614
0.073350765 -0.093054622 0.12793614
0.073950805 -0.093131855 0.12800035
0.067676648 -0.093575507 0.1275567
0.068355061 -0.0934214 0.12742797
0.068982944 -0.0934214 0.12742797
0.069636784 -0.093344361 0.12736361
0.070317306 -0.093190253 0.12723486
0.07105162 -0.092882037 0.12697738
0.071654484 -0.092959076 0.12704174
0.072176166 -0.093267292 0.12729923
0.072777376 -0.093344361 0.12736361
0.073378131 -0.0934214 0.12742797
0.073978417 -0.093498439 0.12749232
0.068533532 -0.09332718 0.12653224
0.069188789 -0.093250275 0.12646769
0.069844507 -0.0931734 0.12640318
0.070526898 -0.09301962 0.12627411
0.071104489 -0.0931734 0.12640318
0.071734481 -0.0931734 0.12640318
0.072310671 -0.09332718 0.12653224
0.072858788 -0.093557835 0.12672584
0.073460236 -0.093634725 0.12679039
0.068839483 -0.092851654 0.12531072
0.069471814 -0.092851654 0.12531072
0.070078187 -0.09292838 0.1253754
0.070762686 -0.092774928 0.125246
0.071342386 -0.09292838 0.1253754
0.071921147 -0.093081817 0.12550482
0.072552785 -0.093081817 0.12550482
0.073624454 -0.09361887 0.12595771
0.070675373 -0.091614544 0.12343656
0.07120806 -0.091920793 0.12369601
0.071738876 -0.092226982 0.12395546
0.072587825 -0.091614544 0.12343656
0.070320919 -0.091225013 0.12227044
0.070960984 -0.091225013 0.12227044
0.071522452 -0.091454193 0.12246552
0.072188236 -0.09137781 0.12240049
0.07288117 -0.091225013 0.12227044
0.070552491 -0.090991601 0.12123106
0.071194664 -0.090991601 0.12123106
0.071836837 -0.090991601 0.12123106
0.072505429 -0.090915382 0.12116589
0.073174506 -0.090839148 0.12110068
0.073870949 -0.090686694 0.12097028
0.070012309 -0.091141433 0.12051554
0.070655413 -0.091141433 0.12051554
0.071376413 -0.090913266 0.12031946
0.072046429 -0.090837181 0.12025408
0.072690465 -0.090837181 0.12025408
0.073334508 -0.090837181 0.12025408
0.074005455 -0.09076114 0.12018874
0.07019078 -0.09106493 0.1196021
0.070835523 -0.09106493 0.1196021
0.071454301 -0.091140836 0.11966763
0.072098814 -0.091140836 0.11966763
0.072743326 -0.091140836 0.11966763
0.073387839 -0.091140836 0.11966763
0.074059255 -0.09106493 0.1196021
0.074731134 -0.090989038 0.11953658
0.069076478 -0.090990737 0.11868635
0.069722869 -0.090990737 0.11868635
0.070369251 -0.090990737 0.11868635
0.070989907 -0.091066465 0.11875202
0.071636058 -0.091066465 0.11875202
0.072256014 -0.091142192 0.11881775
0.072901927 -0.091142192 0.11881775
0.07354784 -0.091142192 0.11881775
0.074193761 -0.091142192 0.11881775
0.074839674 -0.091142192 0.11881775
0.069874443 -0.090994418 0.11783411
0.07054773 -0.090918869 0.11776827
0.071170017 -0.090994418 0.11783411
0.071765885 -0.091145545 0.11796583
0.072413206 -0.091145545 0.11796583
0.07306052 -0.091145545 0.11796583
0.073681176 -0.091221109 0.11803171
0.074328266 -0.091221109 0.11803171
0.075002491 -0.091145545 0.11796583
0.069526978 -0.090547711 0.11658378
0.070101798 -0.09077391 0.11678185
0.070700705 -0.090924695 0.11691388
0.071298666 -0.091075495 0.11704594
0.071947634 -0.091075495 0.11704594
0.072544202 -0.091226295 0.11717799
0.073166259 -0.09130168 0.11724402
0.073814519 -0.09130168 0.11724402
0.074462779 -0.09130168 0.11724402
0.075083897 -0.091377094 0.11731005
0.069223486 -0.089954525 0.11519708
0.069627091 -0.09070684 0.11585897
0.070228107 -0.090857297 0.11599134
0.07085368 -0.090932548 0.11605754
0.071478777 -0.091007754 0.11612374
0.072077453 -0.091158226 0.11625612
0.072648995 -0.091383904 0.11645468
0.073271982 -0.09145917 0.11652087
0.073921181 -0.09145917 0.11652087
0.07457038 -0.09145917 0.11652087
0.075165294 -0.091609612 0.11665326
0.069273077 -0.090266749 0.114602
0.069877364 -0.090416893 0.11473471
0.070430197 -0.090717167 0.11500014
0.071032159 -0.090867266 0.11513284
0.071581706 -0.091167539 0.11539826
0.072181314 -0.091317669 0.11553097
0.072779991 -0.091467813 0.11566368
0.073404156 -0.09154287 0.11573003
0.074054524 -0.09154287 0.11573003
0.074651085 -0.091692999 0.11586276
0.069471426 -0.09013024 0.11360712
0.07002753 -0.090429857 0.11387321
0.070607036 -0.090654537 0.11407277
0.07121063 -0.090804338 0.11420581
0.071761817 -0.091103956 0.1144719
0.072337106 -0.091328636 0.11467147
0.072937183 -0.091478452 0.11480451
0.073509879 -0.091703162 0.11500409
0.074134521 -0.09177804 0.1150706
0.07478559 -0.09177804 0.1150706
0.069060795 -0.089846939 0.11247624
0.06964498 -0.090071127 0.11267629
0.070177697 -0.090444818 0.11300975
0.070783868 -0.090594262 0.1131431
0.07133811 -0.090893209 0.11340986
0.071941927 -0.091042683 0.11354323
0.072492883 -0.091341615 0.11380999
0.073068172 -0.091565818 0.11401004
0.073694907 -0.091640562 0.11407673
0.07429453 -0.091790006 0.1142101
0.068669811 -0.089492351 0.11127518
0.06923271 -0.089790627 0.11154261
0.069719359 -0.090312615 0.11201057
0.070327863 -0.090461731 0.11214426
0.070935436 -0.090610877 0.11227798
0.071491078 -0.090909168 0.1125454
0.072070576 -0.091132864 0.11274594
0.072622709 -0.091431141 0.11301337
0.073225372 -0.091580257 0.11314705
0.07382708 -0.091729403 0.11328076
0.074481197 -0.091729403 0.11328076
0.068105035 -0.089662224 0.1105396
0.068718463 -0.089811027 0.11067365
0.069281831 -0.090108648 0.11094174
0.069868118 -0.090331852 0.11114277
0.07047803 -0.090480655 0.11127682
0.071036488 -0.090778291 0.11154489
0.07164406 -0.090927079 0.11167893
0.072199225 -0.0912247 0.11194701
0.072804458 -0.091373518 0.11208105
0.073382556 -0.091596708 0.1122821
0.074012108 -0.091671109 0.11234911
0.068225488 -0.089759201 0.10973553
0.068791434 -0.090056151 0.11000428
0.069404624 -0.090204641 0.11013864
0.069992088 -0.090427339 0.11034019
0.07060317 -0.090575814 0.11047457
0.071188062 -0.090798512 0.11067611
0.071797036 -0.090947002 0.11081047
0.072327882 -0.091318175 0.11114639
0.072934285 -0.091466665 0.11128075
0.073565945 -0.091540903 0.11134796
0.074170701 -0.091689393 0.11148232
0.068345942 -0.089857832 0.10892981
0.068913057 -0.090154126 0.10919921
0.069527417 -0.090302259 0.1093339
0.070116051 -0.09052448 0.10953596
0.070728302 -0.090672627 0.10967065
0.07133963 -0.09082076 0.10980535
0.071899027 -0.091117054 0.11007473
0.072482258 -0.091339275 0.11027679
0.073116034 -0.091413334 0.11034414
0.073696941 -0.09163557 0.1105462
0.074329302 -0.091709629 0.11061355
0.067872375 -0.089736387 0.10791987
0.068442307 -0.090032011 0.10818993
0.069059014 -0.090179831 0.10832496
0.06969934 -0.090253726 0.10839248
0.070289604 -0.09047547 0.10859503
0.070903495 -0.090623289 0.10873005
0.071516462 -0.090771094 0.10886508
0.072077498 -0.091066688 0.10913514
0.072688103 -0.091214508 0.10927017
0.073323749 -0.091288432 0.10933769
0.073880337 -0.091584057 0.10960773
0.068586849 -0.09006004 0.10731336
0.069204964 -0.090207532 0.10744873
0.069822133 -0.090355009 0.10758407
0.07043837 -0.090502486 0.10771945
0.071053669 -0.090649977 0.10785481
0.071668029 -0.090797469 0.10799018
0.072230466 -0.091092438 0.1082609
0.072842479 -0.091239914 0.10839626
0.073479541 -0.091313645 0.10846394
0.074089922 -0.091461137 0.10859931
0.067513175 -0.089722201 0.10609561
0.068134807 -0.089869335 0.10623127
0.06873139 -0.090090081 0.10643482
0.069350913 -0.09023723 0.10657053
0.070018604 -0.09023723 0.10657053
0.070611924 -0.090457946 0.10677405
0.071228862 -0.090605095 0.10690975
0.071844868 -0.090752259 0.10704544
0.07243444 -0.09097296 0.10724898
0.073048331 -0.091120124 0.10738467
0.073687255 -0.091193691 0.10745251
0.067631297 -0.089828432 0.10528223
0.06820637 -0.090122074 0.10555428
0.068851843 -0.090195507 0.10562231
0.069521189 -0.090195507 0.10562231
0.070141405 -0.090342298 0.10575831
0.070735887 -0.090562537 0.10596237
0.071353994 -0.090709358 0.1060984
0.071996436 -0.090782762 0.10616638
0.072587416 -0.091002986 0.10637042
0.073228441 -0.091076404 0.10643844
0.073869005 -0.091149807 0.10650645
0.074535303 -0.091149807 0.10650645
0.067749403 -0.089936346 0.10446723
0.068325654 -0.090229318 0.10473993
0.068996392 -0.090229318 0.10473993
0.069618486 -0.090375811 0.10487629
0.070239641 -0.090522304 0.10501266
0.070909441 -0.090522304 0.10501266
0.071554221 -0.090595543 0.10508083
0.072173275 -0.090742037 0.10521717
0.072842374 -0.090742037 0.10521717
0.073485747 -0.090815261 0.10528535
0.074102685 -0.090961754 0.10542171
0.067241438 -0.089899749 0.10351388
0.067891143 -0.089972809 0.1035822
0.068492651 -0.09019205 0.10378726
0.069140941 -0.090265125 0.10385559
0.069788761 -0.090338215 0.10392395
0.070460677 -0.090338215 0.10392395
0.071107797 -0.090411291 0.10399228
0.071729414 -0.090557456 0.10412897
0.072375372 -0.090630502 0.10419729
0.073046349 -0.090630502 0.10419729
0.073691584 -0.090703592 0.10426566
0.074336372 -0.090776667 0.104334
0.067985624 -0.090157107 0.10283226
0.068635792 -0.090230018 0.10290076
0.069285482 -0.090302944 0.10296927
0.069959037 -0.090302944 0.10296927
0.070632592 -0.090302944 0.10296927
0.071281351 -0.090375856 0.10303777
0.071929641 -0.090448752 0.10310628
0.072602727 -0.090448752 0.10310628
0.073275812 -0.090448752 0.10310628
0.073897429 -0.090594575 0.10324329
0.067475319 -0.090124488 0.10187493
0.068103746 -0.090269968 0.10201228
0.068778932 -0.090269968 0.10201228
0.069430031 -0.09034273 0.10208096
0.070104994 -0.09034273 0.10208096
0.070779949 -0.09034273 0.10208096
0.071454905 -0.09034273 0.10208096
0.072104834 -0.090415463 0.10214961
0.072754294 -0.090488225 0.1022183
0.073428787 -0.090488225 0.1022183
0.074103266 -0.090488225 0.1022183
0.067615651 -0.090166762 0.10098413
0.068245478 -0.09031193 0.10112181
0.068922073 -0.09031193 0.10112181
0.06957458 -0.090384498 0.10119063
0.070226617 -0.090457097 0.10125948
0.070927307 -0.090384498 0.10119063
0.071603663 -0.090384498 0.10119063
0.072254993 -0.090457097 0.10125948
0.072931126 -0.090457097 0.10125948
0.073581763 -0.090529665 0.10132831
0.074283384 -0.090457097 0.10125948
0.067008048 -0.090428278 0.10029835
0.067662433 -0.090500683 0.10036735
0.068363585 -0.090428278 0.10029835
0.0690175 -0.090500683 0.10036735
0.069695033 -0.090500683 0.10036735
0.070372567 -0.090500683 0.10036735
0.0710501 -0.090500683 0.10036735
0.071727633 -0.090500683 0.10036735
0.072355106 -0.090645522 0.10050537
0.073057435 -0.090573102 0.10043637
0.073734738 -0.090573102 0.10043637
0.074412033 -0.090573102 0.10043637
0.07506337 -0.090645522 0.10050537
0.067077518 -0.090690777 0.099611565
0.067755982 -0.090690777 0.099611565
0.068410829 -0.090763032 0.099680766
0.069112927 -0.090690777 0.099611565
0.069791399 -0.090690777 0.099611565
0.070445538 -0.090763032 0.099680766
0.071172893 -0.090618521 0.099542424
0.071802013 -0.090763032 0.099680766
0.07250528 -0.090690777 0.099611565
0.073183753 -0.090690777 0.099611565
0.073836721 -0.090763032 0.099680766
0.07454069 -0.090690777 0.099611565
0.067802764 -0.091026351 0.098993152
0.068481706 -0.091026351 0.098993152
0.069184497 -0.090954274 0.098923817
0.069839582 -0.091026351 0.098993152
0.070542842 -0.090954274 0.098923817
0.071222015 -0.090954274 0.098923817
0.071901187 -0.090954274 0.098923817
0.07258036 -0.090954274 0.098923817
0.073259532 -0.090954274 0.098923817
0.073938712 -0.090954274 0.098923817
0.067193285 -0.091290668 0.09830457
0.067872927 -0.091290668 0.09830457
0.068552569 -0.091290668 0.09830457
0.06925606 -0.09121877 0.098235071
0.069960035 -0.091146842 0.098165557
0.070640147 -0.091146842 0.098165557
0.071344808 -0.091074929 0.098096073
0.07202515 -0.091074929 0.098096073
0.072705492 -0.091074929 0.098096073
0.073385842 -0.091074929 0.098096073
0.074066184 -0.091074929 0.098096073
0.074797988 -0.090931088 0.09795706
0.067989863 -0.0914125 0.097475648
0.068694308 -0.091340736 0.09740597
0.069399208 -0.091268986 0.097336307
0.070104577 -0.091197252 0.097266644
0.070786089 -0.091197252 0.097266644
0.071516722 -0.091053739 0.097127318
0.07214912 -0.091197252 0.097266644
0.072830632 -0.091197252 0.097266644
0.073512152 -0.091197252 0.097266644
0.074244663 -0.091053739 0.097127318
0.074926637 -0.091053739 0.097127318
0.068859667 -0.091321185 0.096435577
0.069542348 -0.091321185 0.096435577
0.070273213 -0.091178015 0.096295893
0.070956372 -0.091178015 0.096295893
0.071639523 -0.091178015 0.096295893
0.072322682 -0.091178015 0.096295893
0.073005833 -0.091178015 0.096295893
0.073688991 -0.091178015 0.096295893
0.074397638 -0.09110643 0.096226066
0.069001392 -0.091375396 0.095532864
0.069757059 -0.091161117 0.095322847
0.07044185 -0.091161117 0.095322847
0.071102321 -0.091232553 0.095392853
0.071737759 -0.091375396 0.095532864
0.072496235 -0.091161117 0.095322847
0.073181026 -0.091161117 0.095322847
0.073840559 -0.091232553 0.095392853
0.074550621 -0.091161117 0.095322847
0.068504408 -0.091289058 0.094487816
0.069214001 -0.091217816 0.094417647
0.069900192 -0.091217816 0.094417647
0.070562303 -0.091289058 0.094487816
0.071272597 -0.091217816 0.094417647
0.071909674 -0.091360331 0.094557986
0.072620198 -0.091289058 0.094487816
0.073306166 -0.091289058 0.094487816
0.073966861 -0.091360331 0.094557986
0.068691514 -0.091205388 0.09344013
0.069402978 -0.091134295 0.093369782
0.070091054 -0.091134295 0.093369782
0.070779122 -0.091134295 0.093369782
0.071442872 -0.091205388 0.09344013
0.072057031 -0.091418669 0.093651101
0.072744168 -0.091418669 0.093651101
0.073456332 -0.091347545 0.093580768
0.074118435 -0.091418669 0.093651101
0.068948783 -0.090911582 0.092178285
0.069639206 -0.090911582 0.092178285
0.070329614 -0.090911582 0.092178285
0.071020029 -0.090911582 0.092178285
0.071686126 -0.090982497 0.092248783
0.072278067 -0.091266215 0.092530772
0.072967306 -0.091266215 0.092530772
0.073656552 -0.091266215 0.092530772
0.07432054 -0.091337115 0.092601255
0.069135897 -0.090833694 0.091124788
0.06982819 -0.090833694 0.091124788
0.070544325 -0.090762943 0.091054142
0.071164578 -0.09097521 0.091266125
0.071832076 -0.091045976 0.091336772
0.072499096 -0.091116741 0.091407448
0.073190451 -0.091116741 0.091407448
0.073881797 -0.091116741 0.091407448
0.074497372 -0.091329008 0.091619417
0.069276229 -0.090899646 0.090210304
0.069969922 -0.090899646 0.090210304
0.070687473 -0.090829059 0.090139478
0.071333215 -0.090970248 0.090281144
0.071978025 -0.091111436 0.090422809
0.072646454 -0.091182038 0.090493605
0.073364004 -0.091111436 0.090422809
0.074031964 -0.091182038 0.090493605
0.070088036 -0.091038018 0.089364842
0.070806749 -0.090967596 0.089293852
0.071477763 -0.091038018 0.089364842
0.072172627 -0.091038018 0.089364842
0.07286749 -0.091038018 0.089364842
0.073537558 -0.091108456 0.089435846
0.074207157 -0.091178879 0.089506805
0.070371501 -0.090686202 0.088019595
0.07102146 -0.090826735 0.088161916
0.071694583 -0.090896994 0.088233069
0.073785499 -0.090896994 0.088233069
0.070631355 -0.090408474 0.086741701
0.071331598 -0.090408474 0.086741701
0.071983665 -0.090548664 0.08688435
0.072659135 -0.090618744 0.086955667
0.073358677 -0.090618744 0.086955667
0.07091482 -0.090064436 0.085388675
0.07159403 -0.090134367 0.085460156
0.072200485 -0.090414107 0.085746124
0.072878055 -0.090484008 0.085817605
0.073530592 -0.090623885 0.085960582
0.071151048 -0.089863911 0.084174976
0.07176102 -0.09014298 0.0844616
0.072417304 -0.090282515 0.084604919
0.073024005 -0.090561569 0.084891543
0.069493242 -0.088970691 0.082239762
0.070133857 -0.089179501 0.082455248
0.07077308 -0.089388296 0.082670689
0.07143452 -0.089527503 0.082814336
0.072071165 -0.089736298 0.083029792
0.072682306 -0.090014696 0.083317086
0.073364556 -0.090084314 0.08338891
0 0 0 1 0 0 0 1 0 0 0 1 0 0 0 0 0 534 1 0 0
