ply
format ascii 1.0
comment PCL generated
element vertex 530
property float x
property float y
property float z
element camera 1
property float view_px
property float view_py
property float view_pz
property float x_axisx
property float x_axisy
property float x_axisz
property float y_axisx
property float y_axisy
property float y_axisz
property float z_axisx
property float z_axisy
property float z_axisz
property float focal
property float scalex
property float scaley
property float centerx
property float centery
property int viewportx
property int viewporty
property float k1
property float k2
end_header
0.069060132 -0.088745475 0.13167964
0.069688715 -0.088745475 0.13167964
0.070291109 -0.088824168 0.13174236
0.070919462 -0.088824168 0.13174236
0.067802958 -0.089189947 0.13123517
0.068406053 -0.089268491 0.13129804
0.069034405 -0.089268491 0.13129804
0.069662757 -0.089268491 0.13129804
0.070291109 -0.089268491 0.13129804
0.070919462 -0.089268491 0.13129804
0.071547814 -0.089268491 0.13129804
0.072122365 -0.089425579 0.1314238
0.067124315 -0.089791179 0.13091677
0.067752436 -0.089791179 0.13091677
0.068406053 -0.089712799 0.13085373
0.069034405 -0.089712799 0.13085373
0.069662757 -0.089712799 0.13085373
0.070264906 -0.089791179 0.13091677
0.070919462 -0.089712799 0.13085373
0.071494475 -0.089869559 0.13097982
0.072095469 -0.089947909 0.13104284
0.072695971 -0.090026304 0.1311059
0.073296025 -0.090104669 0.13116893
0.066471405 -0.090313539 0.13053584
0.067099288 -0.090313539 0.13053584
0.067727178 -0.090313539 0.13053584
0.068380557 -0.090235338 0.13047263
0.068982944 -0.090313539 0.13053584
0.069610827 -0.090313539 0.13053584
0.070238717 -0.090313539 0.13053584
0.070893019 -0.090235338 0.13047263
0.071494475 -0.090313539 0.13053584
0.072095469 -0.090391725 0.13059902
0.072668836 -0.090548158 0.13072546
0.073268652 -0.090626389 0.13078867
0.073895596 -0.090626389 0.13078867
0.066446617 -0.090835541 0.13015521
0.067074262 -0.090835541 0.13015521
0.067701921 -0.090835541 0.13015521
0.068329573 -0.090835541 0.13015521
0.068982944 -0.090757519 0.13009186
0.069610827 -0.090757519 0.13009186
0.070238717 -0.090757519 0.13009186
0.070840165 -0.090835541 0.13015521
0.071441144 -0.090913609 0.1302186
0.072068557 -0.090913609 0.1302186
0.072641701 -0.091069698 0.13034534
0.073268652 -0.091069698 0.13034534
0.073840387 -0.091225803 0.13047211
0.065769851 -0.091435134 0.12983848
0.066421822 -0.091357261 0.12977494
0.067049235 -0.091357261 0.12977494
0.067676648 -0.091357261 0.12977494
0.068304069 -0.091357261 0.12977494
0.068931475 -0.091357261 0.12977494
0.069584869 -0.091279358 0.12971139
0.070212521 -0.091279358 0.12971139
0.070840165 -0.091279358 0.12971139
0.071441144 -0.091357261 0.12977494
0.072068557 -0.091357261 0.12977494
0.072641701 -0.091513023 0.12990203
0.073268652 -0.091513023 0.12990203
0.073867999 -0.091590896 0.12996557
0.074466862 -0.091668785 0.13002911
0.065745287 -0.091956347 0.12945871
0.066397026 -0.091878608 0.12939501
0.067049235 -0.091800898 0.12933129
0.067651391 -0.091878608 0.12939501
0.068304069 -0.091800898 0.12933129
0.068931475 -0.091800898 0.12933129
0.069558896 -0.091800898 0.12933129
0.070212521 -0.091723174 0.12926759
0.070813723 -0.091800898 0.12933129
0.071414478 -0.091878608 0.12939501
0.072041661 -0.091878608 0.12939501
0.072641701 -0.091956347 0.12945871
0.073268652 -0.091956347 0.12945871
0.073867999 -0.092034042 0.12952241
0.074466862 -0.092111781 0.12958613
0.066372231 -0.092399657 0.1290154
0.067024209 -0.092322096 0.12895152
0.067651391 -0.092322096 0.12895152
0.068278573 -0.092322096 0.12895152
0.068931475 -0.092244551 0.12888765
0.069558896 -0.092244551 0.12888765
0.070212521 -0.09216699 0.12882377
0.070813723 -0.092244551 0.12888765
0.071441144 -0.092244551 0.12888765
0.072068557 -0.092244551 0.12888765
0.072641701 -0.092399657 0.1290154
0.073241286 -0.092477202 0.12907927
0.073867999 -0.092477202 0.12907927
0.074494705 -0.092477202 0.12907927
0.066372231 -0.092842981 0.12857208
0.066999175 -0.092842981 0.12857208
0.067626126 -0.092842981 0.12857208
0.068278573 -0.092765585 0.12850803
0.068931475 -0.092688203 0.128444
0.069558896 -0.092688203 0.128444
0.070212521 -0.092610806 0.12837996
0.070866592 -0.092533439 0.12831593
0.071441144 -0.092688203 0.128444
0.072095469 -0.092610806 0.12837996
0.072668836 -0.092765585 0.12850803
0.073268652 -0.092842981 0.12857208
0.073895596 -0.092842981 0.12857208
0.074494705 -0.092920363 0.12863611
0.066999175 -0.093286291 0.12812877
0.067651391 -0.093209058 0.12806454
0.068278573 -0.093209058 0.12806454
0.068931475 -0.093131855 0.12800035
0.069558896 -0.093131855 0.12800035
0.070238717 -0.092977419 0.12787196
0.070866592 -0.092977419 0.12787196
0.071521141 -0.092900217 0.12780775
0.072068557 -0.093131855 0.12800035
0.072668836 -0.093209058 0.12806454
0.073296025 -0.093209058 0.12806454
0.073895596 -0.093286291 0.12812877
0.067600869 -0.093806654 0.1277498
0.068329573 -0.093498439 0.12749232
0.068957217 -0.093498439 0.12749232
0.069584869 -0.093498439 0.12749232
0.070264906 -0.093344361 0.12736361
0.070893019 -0.093344361 0.12736361
0.071547814 -0.093267292 0.12729923
0.072149262 -0.093344361 0.12736361
0.072750241 -0.0934214 0.12742797
0.073296025 -0.093652546 0.12762107
0.068380557 -0.093788505 0.12691946
0.069085866 -0.093557835 0.12672584
0.069896437 -0.09301962 0.12627411
0.070369706 -0.093480945 0.12666132
0.071078055 -0.093250275 0.12646769
0.071787819 -0.09301962 0.12627411
0.072203062 -0.093634725 0.12679039
0.072831646 -0.093634725 0.12679039
0.073405497 -0.093788505 0.12691946
0.068712004 -0.093235269 0.12563421
0.069523275 -0.092698216 0.1251813
0.070156083 -0.092698216 0.1251813
0.070762686 -0.092774928 0.125246
0.071368814 -0.092851654 0.12531072
0.071974486 -0.09292838 0.1253754
0.073075868 -0.093388706 0.12576361
0.07370656 -0.093388706 0.12576361
0.070597477 -0.091844201 0.12363113
0.07126046 -0.091767669 0.12356628
0.072082505 -0.091231778 0.12311223
0.0727745 -0.091078669 0.1229825
0.071064837 -0.090919465 0.12201031
0.071679637 -0.090995863 0.12207535
0.072346836 -0.090919465 0.12201031
0.073014498 -0.090843081 0.12194528
0.070501029 -0.09114404 0.12136146
0.071194664 -0.090991601 0.12123106
0.071836837 -0.090991601 0.12123106
0.072478995 -0.090991601 0.12123106
0.073147833 -0.090915382 0.12116589
0.073790237 -0.090915382 0.12116589
0.070012309 -0.091141433 0.12051554
0.07068114 -0.091065377 0.12045018
0.071350448 -0.090989307 0.12038481
0.071994029 -0.090989307 0.12038481
0.072637595 -0.090989307 0.12038481
0.073307842 -0.090913266 0.12031946
0.073978558 -0.090837181 0.12025408
0.070165284 -0.091140836 0.11966763
0.070809789 -0.091140836 0.11966763
0.071428344 -0.091216713 0.11973315
0.072098814 -0.091140836 0.11966763
0.072743326 -0.091140836 0.11966763
0.073361173 -0.091216713 0.11973315
0.074032351 -0.091140836 0.11966763
0.074676856 -0.091140836 0.11966763
0.069722869 -0.090990737 0.11868635
0.070369251 -0.090990737 0.11868635
0.070989907 -0.091066465 0.11875202
0.071636058 -0.091066465 0.11875202
0.072229818 -0.091217905 0.11888342
0.072901927 -0.091142192 0.11881775
0.073521182 -0.091217905 0.11888342
0.074166864 -0.091217905 0.11888342
0.074812539 -0.091217905 0.11888342
0.069276705 -0.09084329 0.11770241
0.069899701 -0.090918869 0.11776827
0.07054773 -0.090918869 0.11776827
0.071170017 -0.090994418 0.11783411
0.071817815 -0.090994418 0.11783411
0.072387002 -0.091221109 0.11803171
0.073034085 -0.091221109 0.11803171
0.07365451 -0.091296673 0.11809756
0.074301369 -0.091296673 0.11809756
0.074948221 -0.091296673 0.11809756
0.069476917 -0.09069851 0.11671583
0.070101798 -0.09077391 0.11678185
0.070700705 -0.090924695 0.11691388
0.071324393 -0.09100011 0.11697993
0.071921661 -0.091150895 0.11711198
0.072518006 -0.09130168 0.11724402
0.073139817 -0.091377094 0.11731005
0.073787846 -0.091377094 0.11731005
0.074435875 -0.091377094 0.11731005
0.075056762 -0.091452479 0.11737606
0.069677144 -0.090556368 0.11572659
0.07027863 -0.09070684 0.11585897
0.070879176 -0.090857297 0.11599134
0.071478777 -0.091007754 0.11612374
0.072077453 -0.091158226 0.11625612
0.072622791 -0.09145917 0.11652087
0.073271982 -0.09145917 0.11652087
0.073894516 -0.091534376 0.11658706
0.074516572 -0.091609612 0.11665326
0.075111032 -0.091760069 0.11678563
0.069223486 -0.090416893 0.11473471
0.069827311 -0.090567023 0.11486742
0.070430197 -0.090717167 0.11500014
0.071006656 -0.090942353 0.11519919
0.071633168 -0.09101741 0.11526555
0.072181314 -0.091317669 0.11553097
0.072753794 -0.09154287 0.11573003
0.073377714 -0.091617942 0.1157964
0.074001186 -0.091692999 0.11586276
0.074597284 -0.091843128 0.11599545
0.069372252 -0.090429857 0.11387321
0.069977477 -0.090579659 0.11400625
0.070581771 -0.090729445 0.1141393
0.071185127 -0.090879261 0.11427234
0.071736082 -0.091178864 0.11453845
0.072311133 -0.091403559 0.11473799
0.072884783 -0.091628253 0.11493756
0.073483452 -0.09177804 0.1150706
0.074107848 -0.091852963 0.11513713
0.07473179 -0.091927856 0.11520363
0.068987116 -0.090071127 0.11267629
0.069521002 -0.090444818 0.11300975
0.070127644 -0.090594262 0.1131431
0.070733346 -0.090743735 0.11327648
0.071312606 -0.090967953 0.11347656
0.071890466 -0.091192141 0.11367661
0.072492883 -0.091341615 0.11380999
0.073041968 -0.091640562 0.11407673
0.073642053 -0.091790006 0.1142101
0.07429453 -0.091790006 0.1142101
0.069060795 -0.090312615 0.11201057
0.069669768 -0.090461731 0.11214426
0.07022775 -0.090760022 0.11241169
0.070834383 -0.090909168 0.1125454
0.071440093 -0.091058284 0.11267908
0.072044849 -0.09120743 0.11281279
0.072596744 -0.091505706 0.1130802
0.073199168 -0.091654837 0.11321391
0.07382708 -0.091729403 0.11328076
0.068572506 -0.090257466 0.11107577
0.069159031 -0.090480655 0.11127682
0.069744147 -0.09070389 0.11147788
0.070377916 -0.090778291 0.11154489
0.070985958 -0.090927079 0.11167893
0.071593069 -0.091075897 0.11181296
0.072147764 -0.091373518 0.11208105
0.072752535 -0.091522306 0.11221506
0.073382556 -0.091596708 0.1122821
0.074012108 -0.091671109 0.11234911
0.068669811 -0.090427339 0.11034019
0.069257274 -0.090650052 0.11054173
0.069868118 -0.090798512 0.11067611
0.07047803 -0.090947002 0.11081047
0.07108701 -0.091095477 0.11094485
0.071695052 -0.091243953 0.11107922
0.072302148 -0.091392428 0.11121358
0.07290832 -0.091540903 0.11134796
0.073513545 -0.091689393 0.11148232
0.068201393 -0.090302259 0.1093339
0.068791434 -0.09052448 0.10953596
0.069429189 -0.090598539 0.10960329
0.070016876 -0.09082076 0.10980535
0.070678249 -0.09082076 0.10980535
0.071238585 -0.091117054 0.11007473
0.071848027 -0.091265187 0.11020944
0.072456531 -0.091413334 0.11034414
0.073064104 -0.091561481 0.11047885
0.073696941 -0.09163557 0.1105462
0.068345942 -0.09032765 0.10845999
0.06896171 -0.09047547 0.10859503
0.069601104 -0.09054935 0.10866253
0.070215225 -0.090697169 0.10879757
0.070778362 -0.090992808 0.10906763
0.071390152 -0.091140628 0.10920265
0.072026506 -0.091214508 0.10927017
0.072662368 -0.091288432 0.10933769
0.07319393 -0.091657966 0.10967527
0.068490483 -0.090355009 0.10758407
0.069107659 -0.090502486 0.10771945
0.069773018 -0.090502486 0.10771945
0.070388779 -0.090649977 0.10785481
0.071003608 -0.090797469 0.10799018
0.071592249 -0.091018677 0.1081932
0.072204977 -0.091166154 0.10832858
0.072842479 -0.091239914 0.10839626
0.073401645 -0.091534853 0.10866697
0.068610936 -0.090457946 0.10677405
0.069277935 -0.090457946 0.10677405
0.069920376 -0.090531513 0.10684189
0.070562333 -0.090605095 0.10690975
0.071178801 -0.090752259 0.10704544
0.071769081 -0.09097296 0.10724898
0.072383448 -0.091120124 0.10738467
0.073048331 -0.091120124 0.10738467
0.068182513 -0.090195507 0.10562231
0.068803668 -0.090342298 0.10575831
0.069423892 -0.090489119 0.10589434
0.070067726 -0.090562537 0.10596237
0.070735887 -0.090562537 0.10596237
0.071379028 -0.09063594 0.10603037
0.071996436 -0.090782762 0.10616638
0.072587416 -0.091002986 0.10637042
0.073279902 -0.090929583 0.10630241
0.067749403 -0.089936346 0.10446723
0.06834951 -0.090156063 0.10467175
0.068972304 -0.090302557 0.10480811
0.069642819 -0.090302557 0.10480811
0.070288762 -0.090375811 0.10487629
0.070959032 -0.090375811 0.10487629
0.071579248 -0.090522304 0.10501266
0.072223797 -0.090595543 0.10508083
0.072918862 -0.090522304 0.10501266
0.073588662 -0.090522304 0.10501266
0.067914762 -0.089899749 0.10351388
0.068516508 -0.09011896 0.10371891
0.069165029 -0.09019205 0.10378726
0.069837414 -0.09019205 0.10378726
0.070509791 -0.09019205 0.10378726
0.071157381 -0.090265125 0.10385559
0.071804494 -0.090338215 0.10392395
0.072476409 -0.090338215 0.10392395
0.073148325 -0.090338215 0.10392395
0.073794506 -0.090411291 0.10399228
0.068056501 -0.089938357 0.10262671
0.068707362 -0.090011299 0.10269523
0.069333665 -0.090157107 0.10283226
0.069983363 -0.090230018 0.10290076
0.070657149 -0.090230018 0.10290076
0.07135573 -0.090157107 0.10283226
0.072004721 -0.090230018 0.10290076
0.072678514 -0.090230018 0.10290076
0.0733523 -0.090230018 0.10290076
0.074000344 -0.090302944 0.10296927
0.068150982 -0.090124488 0.10187493
0.068826646 -0.090124488 0.10187493
0.069502302 -0.090124488 0.10187493
0.07012932 -0.090269968 0.10201228
0.070853621 -0.090124488 0.10187493
0.071529284 -0.090124488 0.10187493
0.072154887 -0.090269968 0.10201228
0.072880603 -0.090124488 0.10187493
0.073505282 -0.090269968 0.10201228
0.074231923 -0.090124488 0.10187493
0.068292722 -0.090166762 0.10098413
0.068969786 -0.090166762 0.10098413
0.06964685 -0.090166762 0.10098413
0.070323914 -0.090166762 0.10098413
0.070951864 -0.09031193 0.10112181
0.071628459 -0.09031193 0.10112181
0.072305053 -0.09031193 0.10112181
0.073032178 -0.090166762 0.10098413
0.07365825 -0.09031193 0.10112181
0.074334845 -0.09031193 0.10112181
0.068434462 -0.090211019 0.10009132
0.06908907 -0.090283453 0.10016035
0.069767304 -0.090283453 0.10016035
0.070445538 -0.090283453 0.10016035
0.071074657 -0.090428278 0.10029835
0.071802013 -0.090283453 0.10016035
0.072480246 -0.090283453 0.10016035
0.073158488 -0.090283453 0.10016035
0.07378573 -0.090428278 0.10029835
0.074514955 -0.090283453 0.10016035
0.067896314 -0.090257287 0.099196553
0.068552569 -0.090329513 0.099265724
0.069232211 -0.090329513 0.099265724
0.06986367 -0.090474024 0.099404067
0.070542842 -0.090474024 0.099404067
0.071222015 -0.090474024 0.099404067
0.071876399 -0.090546265 0.099473238
0.072555333 -0.090546265 0.099473238
0.07320901 -0.090618521 0.099542424
0.073913217 -0.090546265 0.099473238
0.074592151 -0.090546265 0.099473238
0.075271092 -0.090546265 0.099473238
0.067989863 -0.090449676 0.098438472
0.068623438 -0.09059386 0.098577142
0.069279924 -0.090665936 0.098646462
0.069960035 -0.090665936 0.098646462
0.070640147 -0.090665936 0.098646462
0.071320251 -0.090665936 0.098646462
0.071975566 -0.090738028 0.098715812
0.072655439 -0.090738028 0.098715812
0.07333532 -0.090738028 0.098715812
0.073989704 -0.09081009 0.098785147
0.074669339 -0.09081009 0.098785147
0.067355365 -0.090787247 0.097818047
0.068060026 -0.090715349 0.097748548
0.068717927 -0.090787247 0.097818047
0.069399208 -0.090787247 0.097818047
0.070080489 -0.090787247 0.097818047
0.070737444 -0.09085916 0.097887546
0.071418494 -0.09085916 0.097887546
0.072099537 -0.09085916 0.097887546
0.072755553 -0.090931088 0.09795706
0.073436365 -0.090931088 0.09795706
0.074117184 -0.090931088 0.09795706
0.074797988 -0.090931088 0.09795706
0.068176977 -0.090838462 0.0969183
0.068859667 -0.090838462 0.0969183
0.069542348 -0.090838462 0.0969183
0.07022503 -0.090838462 0.0969183
0.070883393 -0.090910226 0.096987978
0.071541287 -0.090981975 0.097057641
0.072223507 -0.090981975 0.097057641
0.072880685 -0.091053739 0.097127318
0.073562674 -0.091053739 0.097127318
0.074193664 -0.091197252 0.097266644
0.074875176 -0.091197252 0.097266644
0.067633212 -0.090891674 0.096016586
0.068317302 -0.090891674 0.096016586
0.069001392 -0.090891674 0.096016586
0.069661632 -0.090963259 0.096086398
0.070345484 -0.090963259 0.096086398
0.071005017 -0.091034859 0.096156254
0.071688637 -0.091034859 0.096156254
0.07234747 -0.09110643 0.096226066
0.073030859 -0.09110643 0.096226066
0.073688991 -0.091178015 0.096295893
0.074321151 -0.091321185 0.096435577
0.068434246 -0.091018274 0.095182836
0.06916675 -0.090875447 0.095042869
0.069804773 -0.091018274 0.095182836
0.070490032 -0.091018274 0.095182836
0.071150973 -0.091089696 0.095252857
0.071811438 -0.091161117 0.095322847
0.072471432 -0.091232553 0.095392853
0.073181026 -0.091161117 0.095322847
0.073840559 -0.091232553 0.095392853
0.074474126 -0.091375396 0.095532864
0.06788791 -0.091075301 0.094277307
0.06857457 -0.091075301 0.094277307
0.069261245 -0.091075301 0.094277307
0.069947906 -0.091075301 0.094277307
0.070658669 -0.091004029 0.094207138
0.071272597 -0.091217816 0.094417647
0.071934238 -0.091289058 0.094487816
0.072620198 -0.091289058 0.094487816
0.073306166 -0.091289058 0.094487816
0.073966861 -0.091360331 0.094557986
0.074652597 -0.091360331 0.094557986
0.068026833 -0.091134295 0.093369782
0.068691514 -0.091205388 0.09344013
0.069426604 -0.091063201 0.093299463
0.070114903 -0.091063201 0.093299463
0.07080321 -0.091063201 0.093299463
0.071442872 -0.091205388 0.09344013
0.072081596 -0.091347545 0.093580768
0.072768964 -0.091347545 0.093580768
0.073456332 -0.091347545 0.093580768
0.074118435 -0.091418669 0.093651101
0.074805573 -0.091418669 0.093651101
0.068188913 -0.091124356 0.092389777
0.068878621 -0.091124356 0.092389777
0.069615588 -0.090982497 0.092248783
0.070305765 -0.090982497 0.092248783
0.070995942 -0.090982497 0.092248783
0.071637474 -0.091124356 0.092389777
0.072278067 -0.091266215 0.092530772
0.072992101 -0.091195285 0.092460245
0.073656552 -0.091266215 0.092530772
0.074345797 -0.091266215 0.092530772
0.06837415 -0.091045976 0.091336772
0.069065735 -0.091045976 0.091336772
0.06982819 -0.090833694 0.091124788
0.070520476 -0.090833694 0.091124788
0.071164578 -0.09097521 0.091266125
0.071832076 -0.091045976 0.091336772
0.072499096 -0.091116741 0.091407448
0.073215246 -0.091045976 0.091336772
0.073831744 -0.091258273 0.091548771
0.074497372 -0.091329008 0.091619417
0.069206059 -0.091111436 0.090422809
0.069969922 -0.090899646 0.090210304
0.070663616 -0.090899646 0.090210304
0.07135731 -0.090899646 0.090210304
0.072026677 -0.090970248 0.090281144
0.072671011 -0.091111436 0.090422809
0.073364004 -0.091111436 0.090422809
0.074031964 -0.091182038 0.090493605
0.069393165 -0.091038018 0.089364842
0.070111655 -0.090967596 0.089293852
0.070806749 -0.090967596 0.089293852
0.071453668 -0.091108456 0.089435846
0.072148301 -0.091108456 0.089435846
0.07286749 -0.091038018 0.089364842
0.073537558 -0.091108456 0.089435846
0.074232183 -0.091108456 0.089435846
0.069603667 -0.090896994 0.088233069
0.070324257 -0.090826735 0.088161916
0.07102146 -0.090826735 0.088161916
0.071694583 -0.090896994 0.088233069
0.072367229 -0.090967268 0.088304237
0.073039405 -0.091037527 0.088375375
0.073735908 -0.091037527 0.088375375
0.070513241 -0.09075895 0.087098315
0.071188457 -0.090829059 0.087169647
0.071911395 -0.09075895 0.087098315
0.072610483 -0.09075895 0.087098315
0.073284999 -0.090829059 0.087169647
0.071522452 -0.090344176 0.085674644
0.072176397 -0.090484008 0.085817605
0.072805077 -0.090693831 0.086032078
0.07348147 -0.090763748 0.086103573
0.072320938 -0.090561569 0.084891543
0.072999679 -0.090631336 0.084963188
0.070203327 -0.088970691 0.082239762
0.070866637 -0.089109898 0.082383409
0.071481764 -0.089388296 0.082670689
0.072166584 -0.089457914 0.082742527
0.07287503 -0.089457914 0.082742527
0.073559158 -0.089527503 0.082814336
0.071123905 -0.088847876 0.08108978
0.071765229 -0.089056194 0.081305757
0.072524436 -0.088917315 0.081161782
0.073260494 -0.088847876 0.08108978
0 0 0 1 0 0 0 1 0 0 0 1 0 0 0 0 0 530 1 0 0
