ply
format ascii 1.0
comment PCL generated
element vertex 536
property float x
property float y
property float z
element camera 1
property float view_px
property float view_py
property float view_pz
property float x_axisx
property float x_axisy
property float x_axisz
property float y_axisx
property float y_axisy
property float y_axisz
property float z_axisx
property float z_axisy
property float z_axisz
property float focal
property float scalex
property float scaley
property float centerx
property float centery
property int viewportx
property int viewporty
property float k1
property float k2
end_header
0.069163054 -0.088430643 0.13142878
0.069792576 -0.088430643 0.13142878
0.070395909 -0.088509321 0.13149148
0.071025193 -0.088509321 0.13149148
0.071601145 -0.088666752 0.13161692
0.068508044 -0.0889543 0.13104652
0.069137327 -0.0889543 0.13104652
0.069740646 -0.089032859 0.1311094
0.070369706 -0.089032859 0.1311094
0.070972323 -0.089111388 0.13117227
0.071574479 -0.089189947 0.13123517
0.072149262 -0.089347035 0.13136092
0.072750241 -0.089425579 0.1314238
0.067828223 -0.089556038 0.13072763
0.068457045 -0.089556038 0.13072763
0.069085866 -0.089556038 0.13072763
0.069740646 -0.089477658 0.13066459
0.070343509 -0.089556038 0.13072763
0.070972323 -0.089556038 0.13072763
0.071547814 -0.089712799 0.13085373
0.072122365 -0.089869559 0.13097982
0.072695971 -0.090026304 0.1311059
0.073296025 -0.090104669 0.13116893
0.067174368 -0.090078905 0.13034621
0.067777701 -0.090157107 0.13040942
0.068431549 -0.090078905 0.13034621
0.069060132 -0.090078905 0.13034621
0.069688715 -0.090078905 0.13034621
0.070317306 -0.090078905 0.13034621
0.070919462 -0.090157107 0.13040942
0.071521141 -0.090235338 0.13047263
0.072095469 -0.090391725 0.13059902
0.072668836 -0.090548158 0.13072546
0.073296025 -0.090548158 0.13072546
0.073867999 -0.09070459 0.13085188
0.066471405 -0.090757519 0.13009186
0.067124315 -0.090679482 0.13002849
0.067752436 -0.090679482 0.13002849
0.068406053 -0.090601414 0.1299651
0.069034405 -0.090601414 0.1299651
0.069662757 -0.090601414 0.1299651
0.070264906 -0.090679482 0.13002849
0.070893019 -0.090679482 0.13002849
0.071467817 -0.090835541 0.13015521
0.072041661 -0.090991646 0.13028197
0.072668836 -0.090991646 0.13028197
0.073268652 -0.091069698 0.13034534
0.073840387 -0.091225803 0.13047211
0.074439026 -0.09130384 0.13053548
0.065818965 -0.091279358 0.12971139
0.066421822 -0.091357261 0.12977494
0.067074262 -0.091279358 0.12971139
0.067727178 -0.091201499 0.12964788
0.068355061 -0.091201499 0.12964788
0.068982944 -0.091201499 0.12964788
0.069610827 -0.091201499 0.12964788
0.070238717 -0.091201499 0.12964788
0.070840165 -0.091279358 0.12971139
0.071441144 -0.091357261 0.12977494
0.072041661 -0.091435134 0.12983848
0.072641701 -0.091513023 0.12990203
0.073241286 -0.091590896 0.12996557
0.073840387 -0.091668785 0.13002911
0.074411184 -0.091824561 0.1301562
0.066421822 -0.091800898 0.12933129
0.067049235 -0.091800898 0.12933129
0.067676648 -0.091800898 0.12933129
0.068329573 -0.091723174 0.12926759
0.068957217 -0.091723174 0.12926759
0.069584869 -0.091723174 0.12926759
0.070212521 -0.091723174 0.12926759
0.070813723 -0.091800898 0.12933129
0.071414478 -0.091878608 0.12939501
0.072014757 -0.091956347 0.12945871
0.07258743 -0.092111781 0.12958613
0.073186539 -0.092189491 0.12964983
0.07381279 -0.092189491 0.12964983
0.074411184 -0.092267215 0.12971355
0.066397026 -0.092322096 0.12895152
0.067049235 -0.092244551 0.12888765
0.067676648 -0.092244551 0.12888765
0.068304069 -0.092244551 0.12888765
0.068957217 -0.09216699 0.12882377
0.069584869 -0.09216699 0.12882377
0.070212521 -0.09216699 0.12882377
0.070813723 -0.092244551 0.12888765
0.071414478 -0.092322096 0.12895152
0.072014757 -0.092399657 0.1290154
0.072614565 -0.092477202 0.12907927
0.073213905 -0.092554763 0.12914315
0.07381279 -0.092632309 0.12920702
0.074439026 -0.092632309 0.12920702
0.067024209 -0.092765585 0.12850803
0.067651391 -0.092765585 0.12850803
0.068304069 -0.092688203 0.128444
0.068957217 -0.092610806 0.12837996
0.069584869 -0.092610806 0.12837996
0.070186317 -0.092688203 0.128444
0.070813723 -0.092688203 0.128444
0.071414478 -0.092765585 0.12850803
0.072014757 -0.092842981 0.12857208
0.072614565 -0.092920363 0.12863611
0.073213905 -0.09299776 0.12870017
0.073840387 -0.09299776 0.12870017
0.074411184 -0.093152523 0.12882824
0.066999175 -0.093286291 0.12812877
0.067626126 -0.093286291 0.12812877
0.068329573 -0.093054622 0.12793614
0.068931475 -0.093131855 0.12800035
0.069558896 -0.093131855 0.12800035
0.070212521 -0.093054622 0.12793614
0.070840165 -0.093054622 0.12793614
0.071441144 -0.093131855 0.12800035
0.072041661 -0.093209058 0.12806454
0.072614565 -0.093363509 0.12819296
0.073213905 -0.093440741 0.12825717
0.07381279 -0.093517959 0.12832138
0.067676648 -0.093575507 0.1275567
0.068355061 -0.0934214 0.12742797
0.069008671 -0.093344361 0.12736361
0.069584869 -0.093498439 0.12749232
0.070186317 -0.093575507 0.1275567
0.070866592 -0.0934214 0.12742797
0.071467817 -0.093498439 0.12749232
0.072068557 -0.093575507 0.1275567
0.072614565 -0.093806654 0.1277498
0.073186539 -0.093960777 0.12787855
0.067853481 -0.093480945 0.12666132
0.068533532 -0.09332718 0.12653224
0.069265977 -0.09301962 0.12627411
0.069844507 -0.0931734 0.12640318
0.070448309 -0.093250275 0.12646769
0.071078055 -0.093250275 0.12646769
0.071654484 -0.093404055 0.12659676
0.072203062 -0.093634725 0.12679039
0.072777376 -0.093788505 0.12691946
0.073350765 -0.093942255 0.12704851
0.069497548 -0.092774928 0.125246
0.070130117 -0.092774928 0.125246
0.070710286 -0.09292838 0.1253754
0.071289517 -0.093081817 0.12550482
0.071894489 -0.093158528 0.12556949
0.07241828 -0.093465418 0.12582831
0.072913058 -0.093849018 0.1261518
0.071181864 -0.091997325 0.12376086
0.071012907 -0.091072246 0.12214038
0.07221467 -0.091301396 0.12233546
0.070012309 -0.091141433 0.12051554
0.070655413 -0.091141433 0.12051554
0.071298517 -0.091141433 0.12051554
0.072020225 -0.090913266 0.12031946
0.072690465 -0.090837181 0.12025408
0.073307842 -0.090913266 0.12031946
0.069520764 -0.091140836 0.11966763
0.07019078 -0.09106493 0.1196021
0.070835523 -0.09106493 0.1196021
0.071480274 -0.09106493 0.1196021
0.072125018 -0.09106493 0.1196021
0.072769761 -0.09106493 0.1196021
0.073414512 -0.09106493 0.1196021
0.074086159 -0.090989038 0.11953658
0.069126531 -0.090839282 0.11855495
0.069722869 -0.090990737 0.11868635
0.070343763 -0.091066465 0.11875202
0.071015634 -0.090990737 0.11868635
0.071662024 -0.090990737 0.11868635
0.072256014 -0.091142192 0.11881775
0.072901927 -0.091142192 0.11881775
0.07354784 -0.091142192 0.11881775
0.074193761 -0.091142192 0.11881775
0.069276705 -0.09084329 0.11770241
0.069899701 -0.090918869 0.11776827
0.07054773 -0.090918869 0.11776827
0.071195744 -0.090918869 0.11776827
0.071765885 -0.091145545 0.11796583
0.072413206 -0.091145545 0.11796583
0.073034085 -0.091221109 0.11803171
0.073707849 -0.091145545 0.11796583
0.07435517 -0.091145545 0.11796583
0.069552004 -0.090472341 0.11651775
0.070101798 -0.09077391 0.11678185
0.070700705 -0.090924695 0.11691388
0.071324393 -0.09100011 0.11697993
0.071947634 -0.091075495 0.11704594
0.072570391 -0.091150895 0.11711198
0.073192686 -0.091226295 0.11717799
0.073841184 -0.091226295 0.11717799
0.074489675 -0.091226295 0.11717799
0.069099523 -0.090330675 0.11552802
0.069702171 -0.090481147 0.1156604
0.07027863 -0.09070684 0.11585897
0.07085368 -0.090932548 0.11605754
0.071478777 -0.091007754 0.11612374
0.072103426 -0.09108299 0.11618991
0.072701395 -0.091233462 0.11632229
0.073298417 -0.091383904 0.11645468
0.073947854 -0.091383904 0.11645468
0.07457038 -0.09145917 0.11652087
0.069248281 -0.090341821 0.11466834
0.069877364 -0.090416893 0.11473471
0.070455462 -0.090642095 0.11493376
0.071032159 -0.090867266 0.11513284
0.071633168 -0.09101741 0.11526555
0.072207272 -0.091242626 0.11546463
0.07280618 -0.091392756 0.11559734
0.07345701 -0.091392756 0.11559734
0.074081182 -0.091467813 0.11566368
0.074704893 -0.09154287 0.11573003
0.069421835 -0.090280041 0.11374018
0.070002504 -0.090504766 0.11393975
0.070581771 -0.090729445 0.1141393
0.07121063 -0.090804338 0.11420581
0.071736082 -0.091178864 0.11453845
0.072363064 -0.091253743 0.11460495
0.072963379 -0.091403559 0.11473799
0.073589183 -0.091478452 0.11480451
0.07418786 -0.091628253 0.11493756
0.069036238 -0.089921653 0.11254291
0.069570594 -0.090295345 0.11287637
0.070177697 -0.090444818 0.11300975
0.070758604 -0.090669006 0.1132098
0.071312606 -0.090967953 0.11347656
0.071890466 -0.091192141 0.11367661
0.072492883 -0.091341615 0.11380999
0.073094368 -0.091491088 0.11394337
0.073694907 -0.091640562 0.11407673
0.074321188 -0.091715276 0.11414342
0.068548188 -0.089865178 0.11160944
0.069109917 -0.090163469 0.11187686
0.069719359 -0.090312615 0.11201057
0.070302837 -0.090536296 0.11221112
0.070884913 -0.090760022 0.11241169
0.071465589 -0.090983734 0.11261223
0.072044849 -0.09120743 0.11281279
0.072622709 -0.091431141 0.11301337
0.07325156 -0.091505706 0.1130802
0.073853508 -0.091654837 0.11321391
0.068621159 -0.090108648 0.11094174
0.06923271 -0.090257466 0.11107577
0.069843322 -0.090406269 0.11120979
0.070427977 -0.090629473 0.11141086
0.071036488 -0.090778291 0.11154489
0.071593069 -0.091075897 0.11181296
0.072173499 -0.091299102 0.11201403
0.072778493 -0.09144792 0.11214805
0.07340876 -0.091522306 0.11221506
0.074038535 -0.091596708 0.1122821
0.068742782 -0.090204641 0.11013864
0.069380067 -0.090278864 0.11020581
0.069942497 -0.090575814 0.11047457
0.070553109 -0.090724304 0.11060894
0.07116279 -0.090872765 0.1107433
0.071720548 -0.09116973 0.11101204
0.072327882 -0.091318175 0.11114639
0.072934285 -0.091466665 0.11128075
0.073565945 -0.091540903 0.11134796
0.074144274 -0.091763616 0.11154951
0.068273671 -0.090080038 0.10913184
0.068888739 -0.090228185 0.10926655
0.06950286 -0.090376332 0.10940126
0.070066467 -0.090672627 0.10967065
0.070678249 -0.09082076 0.10980535
0.071314365 -0.090894833 0.1098727
0.071848027 -0.091265187 0.11020944
0.072482258 -0.091339275 0.11027679
0.073116034 -0.091413334 0.11034414
0.067824662 -0.089884207 0.10805489
0.068394125 -0.090179831 0.10832496
0.069010362 -0.09032765 0.10845999
0.069625661 -0.09047547 0.10859503
0.070240021 -0.090623289 0.10873005
0.070853442 -0.090771094 0.10886508
0.071491197 -0.090844989 0.1089326
0.072051995 -0.091140628 0.10920265
0.072688103 -0.091214508 0.10927017
0.073323749 -0.091288432 0.10933769
0.073958926 -0.091362327 0.1094052
0.068562753 -0.090133786 0.10738105
0.069180638 -0.090281278 0.10751642
0.069773018 -0.090502486 0.10771945
0.070413575 -0.090576246 0.10778713
0.071053669 -0.090649977 0.10785481
0.071668029 -0.090797469 0.10799018
0.072230466 -0.091092438 0.1082609
0.072893947 -0.091092438 0.1082609
0.073505498 -0.091239914 0.10839626
0.068134807 -0.089869335 0.10623127
0.068707302 -0.090163648 0.10650267
0.069350913 -0.09023723 0.10657053
0.069994047 -0.090310797 0.10663836
0.070587136 -0.090531513 0.10684189
0.071228862 -0.090605095 0.10690975
0.071844868 -0.090752259 0.10704544
0.07243444 -0.09097296 0.10724898
0.073074058 -0.091046557 0.10731682
0.067631297 -0.089828432 0.10528223
0.06820637 -0.090122074 0.10555428
0.068851843 -0.090195507 0.10562231
0.069496863 -0.09026891 0.1056903
0.070141405 -0.090342298 0.10575831
0.07076069 -0.090489119 0.10589434
0.071404055 -0.090562537 0.10596237
0.0720217 -0.090709358 0.1060984
0.072663903 -0.090782762 0.10616638
0.073331363 -0.090782762 0.10616638
0.073946901 -0.090929583 0.10630241
0.067702159 -0.090082839 0.10460359
0.06834951 -0.090156063 0.10467175
0.068996392 -0.090229318 0.10473993
0.069642819 -0.090302557 0.10480811
0.070288762 -0.090375811 0.10487629
0.070959032 -0.090375811 0.10487629
0.071579248 -0.090522304 0.10501266
0.072223797 -0.090595543 0.10508083
0.07286787 -0.090668797 0.10514902
0.073511474 -0.090742037 0.10521717
0.074180581 -0.090742037 0.10521717
0.067891143 -0.089972809 0.1035822
0.068492651 -0.09019205 0.10378726
0.069140941 -0.090265125 0.10385559
0.069813095 -0.090265125 0.10385559
0.070460677 -0.090338215 0.10392395
0.071157381 -0.090265125 0.10385559
0.071804494 -0.090338215 0.10392395
0.072451152 -0.090411291 0.10399228
0.073046349 -0.090630502 0.10419729
0.073717318 -0.090630502 0.10419729
0.074388295 -0.090630502 0.10419729
0.067985624 -0.090157107 0.10283226
0.068635792 -0.090230018 0.10290076
0.069285482 -0.090302944 0.10296927
0.069959037 -0.090302944 0.10296927
0.070632592 -0.090302944 0.10296927
0.071306139 -0.090302944 0.10296927
0.071979687 -0.090302944 0.10296927
0.072627984 -0.090375856 0.10303777
0.073301308 -0.090375856 0.10303777
0.07394889 -0.090448752 0.10310628
0.067498714 -0.090051726 0.10180625
0.068174608 -0.090051726 0.10180625
0.068778932 -0.090269968 0.10201228
0.069454126 -0.090269968 0.10201228
0.07012932 -0.090269968 0.10201228
0.070779949 -0.09034273 0.10208096
0.071454905 -0.09034273 0.10208096
0.072129861 -0.09034273 0.10208096
0.072779559 -0.090415463 0.10214961
0.073479779 -0.09034273 0.10208096
0.074129 -0.090415463 0.10214961
0.06831634 -0.090094179 0.1009153
0.068969786 -0.090166762 0.10098413
0.069598667 -0.09031193 0.10112181
0.070275269 -0.09031193 0.10112181
0.070927307 -0.090384498 0.10119063
0.071603663 -0.090384498 0.10119063
0.072254993 -0.090457097 0.10125948
0.072931126 -0.090457097 0.10125948
0.073607258 -0.090457097 0.10125948
0.074309118 -0.090384498 0.10119063
0.067146979 -0.089993775 0.099884316
0.067802764 -0.09006618 0.099953324
0.068434462 -0.090211019 0.10009132
0.06908907 -0.090283453 0.10016035
0.069719121 -0.090428278 0.10029835
0.070396893 -0.090428278 0.10029835
0.0710501 -0.090500683 0.10036735
0.071727633 -0.090500683 0.10036735
0.072405167 -0.090500683 0.10036735
0.0730827 -0.090500683 0.10036735
0.073760234 -0.090500683 0.10036735
0.074437767 -0.090500683 0.10036735
0.075115301 -0.090500683 0.10036735
0.066559486 -0.090185016 0.099127382
0.067216434 -0.090257287 0.099196553
0.067896314 -0.090257287 0.099196553
0.068505324 -0.090474024 0.099404067
0.069184497 -0.090474024 0.099404067
0.06986367 -0.090474024 0.099404067
0.070518523 -0.090546265 0.099473238
0.071197458 -0.090546265 0.099473238
0.071876399 -0.090546265 0.099473238
0.072555333 -0.090546265 0.099473238
0.073234275 -0.090546265 0.099473238
0.073887713 -0.090618521 0.099542424
0.074592151 -0.090546265 0.099473238
0.066628247 -0.090449676 0.098438472
0.067309052 -0.090449676 0.098438472
0.067989863 -0.090449676 0.098438472
0.068623438 -0.09059386 0.098577142
0.06925606 -0.090738028 0.098715812
0.069960035 -0.090665936 0.098646462
0.070640147 -0.090665936 0.098646462
0.071295694 -0.090738028 0.098715812
0.071975566 -0.090738028 0.098715812
0.072680473 -0.090665936 0.098646462
0.073360585 -0.090665936 0.098646462
0.074015193 -0.090738028 0.098715812
0.0747208 -0.090665936 0.098646462
0.066697001 -0.090715349 0.097748548
0.067378514 -0.090715349 0.097748548
0.068036646 -0.090787247 0.097818047
0.068717927 -0.090787247 0.097818047
0.069375351 -0.09085916 0.097887546
0.070080489 -0.090787247 0.097818047
0.07076177 -0.090787247 0.097818047
0.071443051 -0.090787247 0.097818047
0.072124325 -0.090787247 0.097818047
0.072805606 -0.090787247 0.097818047
0.073461629 -0.09085916 0.097887546
0.07414268 -0.09085916 0.097887546
0.074823722 -0.09085916 0.097887546
0.066742845 -0.091053739 0.097127318
0.067447983 -0.090981975 0.097057641
0.068153583 -0.090910226 0.096987978
0.068836041 -0.090910226 0.096987978
0.069542348 -0.090838462 0.0969183
0.070200935 -0.090910226 0.096987978
0.070907719 -0.090838462 0.0969183
0.071565844 -0.090910226 0.096987978
0.072248295 -0.090910226 0.096987978
0.072930746 -0.090910226 0.096987978
0.073613197 -0.090910226 0.096987978
0.074270159 -0.090981975 0.097057641
0.074952371 -0.090981975 0.097057641
0.066903278 -0.091034859 0.096156254
0.067586899 -0.091034859 0.096156254
0.068293914 -0.090963259 0.096086398
0.068977773 -0.090963259 0.096086398
0.069661632 -0.090963259 0.096086398
0.070345484 -0.090963259 0.096086398
0.071029343 -0.090963259 0.096086398
0.071688637 -0.091034859 0.096156254
0.072372258 -0.091034859 0.096156254
0.073055878 -0.091034859 0.096156254
0.073739506 -0.091034859 0.096156254
0.074423134 -0.091034859 0.096156254
0.068387471 -0.091161117 0.095322847
0.069072269 -0.091161117 0.095322847
0.069780916 -0.091089696 0.095252857
0.070490032 -0.091018274 0.095182836
0.0711753 -0.091018274 0.095182836
0.071835995 -0.091089696 0.095252857
0.072521023 -0.091089696 0.095252857
0.073206052 -0.091089696 0.095252857
0.073891081 -0.091089696 0.095252857
0.07457611 -0.091089696 0.095252857
0.068527795 -0.091217816 0.094417647
0.069214001 -0.091217816 0.094417647
0.069947906 -0.091075301 0.094277307
0.070634574 -0.091075301 0.094277307
0.071321249 -0.091075301 0.094277307
0.071958795 -0.091217816 0.094417647
0.072644986 -0.091217816 0.094417647
0.073381245 -0.091075301 0.094277307
0.074017391 -0.091217816 0.094417647
0.067270003 -0.091347545 0.093580768
0.068003677 -0.091205388 0.09344013
0.068691514 -0.091205388 0.09344013
0.069426604 -0.091063201 0.093299463
0.070091054 -0.091134295 0.093369782
0.07080321 -0.091063201 0.093299463
0.071467198 -0.091134295 0.093369782
0.07213071 -0.091205388 0.09344013
0.07281854 -0.091205388 0.09344013
0.073506378 -0.091205388 0.09344013
0.074194223 -0.091205388 0.09344013
0.068188913 -0.091124356 0.092389777
0.068925403 -0.090982497 0.092248783
0.069639206 -0.090911582 0.092178285
0.070329614 -0.090911582 0.092178285
0.070995942 -0.090982497 0.092248783
0.071637474 -0.091124356 0.092389777
0.072302625 -0.091195285 0.092460245
0.072992101 -0.091195285 0.092460245
0.073681578 -0.091195285 0.092460245
0.069135897 -0.090833694 0.091124788
0.069851808 -0.090762943 0.091054142
0.070544325 -0.090762943 0.091054142
0.071212761 -0.090833694 0.091124788
0.071856402 -0.09097521 0.091266125
0.072523661 -0.091045976 0.091336772
0.073215246 -0.091045976 0.091336772
0.073881797 -0.091116741 0.091407448
0.074573152 -0.091116741 0.091407448
0.068605691 -0.090829059 0.090139478
0.069276229 -0.090899646 0.090210304
0.070040792 -0.090687856 0.089997828
0.070735186 -0.090687856 0.089997828
0.07135731 -0.090899646 0.090210304
0.07207533 -0.090829059 0.090139478
0.072720133 -0.090970248 0.090281144
0.073438391 -0.090899646 0.090210304
0.074107051 -0.090970248 0.090281144
0.069463328 -0.090826735 0.089151859
0.070158899 -0.090826735 0.089151859
0.070854463 -0.090826735 0.089151859
0.071550034 -0.090826735 0.089151859
0.072196953 -0.090967596 0.089293852
0.072941169 -0.090826735 0.089151859
0.073587142 -0.090967596 0.089293852
0.074332297 -0.090826735 0.089151859
0.069720604 -0.090545684 0.087877274
0.070395119 -0.090615958 0.087948456
0.07109303 -0.090615958 0.087948456
0.071766853 -0.090686202 0.088019595
0.072464526 -0.090686202 0.088019595
0.073162198 -0.090686202 0.088019595
0.07385987 -0.090686202 0.088019595
0.070024654 -0.090128064 0.086456403
0.070702218 -0.090198174 0.086527735
0.071379319 -0.090268269 0.086599052
0.072031848 -0.090408474 0.086741701
0.072707772 -0.090478584 0.086813033
0.073407792 -0.090478584 0.086813033
0.074083015 -0.090548664 0.08688435
0.07030531 -0.089784712 0.085102722
0.070962064 -0.089924589 0.085245684
0.07159403 -0.090134367 0.085460156
0.072224572 -0.090344176 0.085674644
0.0729267 -0.090344176 0.085674644
0.073604271 -0.090414107 0.085746124
0.07430616 -0.090414107 0.085746124
0.070539191 -0.089584857 0.083888367
0.071174666 -0.089794159 0.084103331
0.07180874 -0.090003446 0.08431828
0.072417304 -0.090282515 0.084604919
0.073121309 -0.090282515 0.084604919
0.073800743 -0.090352282 0.084676549
0.069447398 -0.089109898 0.082383409
0.070133857 -0.089179501 0.082455248
0.070749685 -0.089457914 0.082742527
0.07143452 -0.089527503 0.082814336
0.072095014 -0.089666709 0.082957983
0.072778672 -0.089736298 0.083029792
0.073461853 -0.089805916 0.08310163
0.074095458 -0.090014696 0.083317086
0 0 0 1 0 0 0 1 0 0 0 1 0 0 0 0 0 536 1 0 0
