ply
format ascii 1.0
comment PCL generated
element vertex 530
property float x
property float y
property float z
element camera 1
property float view_px
property float view_py
property float view_pz
property float x_axisx
property float x_axisy
property float x_axisz
property float y_axisx
property float y_axisy
property float y_axisz
property float z_axisx
property float z_axisy
property float z_axisz
property float focal
property float scalex
property float scaley
property float centerx
property float centery
property int viewportx
property int viewporty
property float k1
property float k2
end_header
0.069662757 -0.088824168 0.13174236
0.070291109 -0.088824168 0.13174236
0.070893019 -0.088902891 0.13180508
0.071494475 -0.088981599 0.13186778
0.068380557 -0.089347035 0.13136092
0.069008671 -0.089347035 0.13136092
0.069610827 -0.089425579 0.1314238
0.070264906 -0.089347035 0.13136092
0.070840165 -0.089504093 0.13148665
0.071467817 -0.089504093 0.13148665
0.072068557 -0.089582652 0.13154955
0.072641701 -0.08973974 0.1316753
0.067701921 -0.089947909 0.13104284
0.068355061 -0.089869559 0.13097982
0.068957217 -0.089947909 0.13104284
0.069584869 -0.089947909 0.13104284
0.070238717 -0.089869559 0.13097982
0.070840165 -0.089947909 0.13104284
0.071467817 -0.089947909 0.13104284
0.072041661 -0.090104669 0.13116893
0.072614565 -0.09026143 0.13129503
0.073241286 -0.09026143 0.13129503
0.067049235 -0.090469956 0.13066225
0.067701921 -0.090391725 0.13059902
0.068304069 -0.090469956 0.13066225
0.068931475 -0.090469956 0.13066225
0.069584869 -0.090391725 0.13059902
0.070212521 -0.090391725 0.13059902
0.070840165 -0.090391725 0.13059902
0.071414478 -0.090548158 0.13072546
0.072014757 -0.090626389 0.13078867
0.072641701 -0.090626389 0.13078867
0.073213905 -0.090782821 0.13091509
0.073840387 -0.090782821 0.13091509
0.066347443 -0.091147751 0.13040872
0.066999175 -0.091069698 0.13034534
0.067651391 -0.090991646 0.13028197
0.068278573 -0.090991646 0.13028197
0.068905748 -0.090991646 0.13028197
0.069558896 -0.090913609 0.1302186
0.070160121 -0.090991646 0.13028197
0.070813723 -0.090913609 0.1302186
0.071441144 -0.090913609 0.1302186
0.07198786 -0.091147751 0.13040872
0.072614565 -0.091147751 0.13040872
0.073241286 -0.091147751 0.13040872
0.073840387 -0.091225803 0.13047211
0.074439026 -0.09130384 0.13053548
0.066347443 -0.091590896 0.12996557
0.066999175 -0.091513023 0.12990203
0.067626126 -0.091513023 0.12990203
0.068227582 -0.091590896 0.12996557
0.068905748 -0.091435134 0.12983848
0.069532938 -0.091435134 0.12983848
0.070160121 -0.091435134 0.12983848
0.070787296 -0.091435134 0.12983848
0.071414478 -0.091435134 0.12983848
0.07198786 -0.091590896 0.12996557
0.072614565 -0.091590896 0.12996557
0.073213905 -0.091668785 0.13002911
0.073840387 -0.091668785 0.13002911
0.074439026 -0.091746658 0.13009265
0.066322647 -0.092111781 0.12958613
0.066949122 -0.092111781 0.12958613
0.067600869 -0.092034042 0.12952241
0.068227582 -0.092034042 0.12952241
0.068880014 -0.091956347 0.12945871
0.069532938 -0.091878608 0.12939501
0.070160121 -0.091878608 0.12939501
0.070787296 -0.091878608 0.12939501
0.071387805 -0.091956347 0.12945871
0.072014757 -0.091956347 0.12945871
0.072614565 -0.092034042 0.12952241
0.073241286 -0.092034042 0.12952241
0.073840387 -0.092111781 0.12958613
0.074439026 -0.092189491 0.12964983
0.066974156 -0.092477202 0.12907927
0.067626126 -0.092399657 0.1290154
0.068227582 -0.092477202 0.12907927
0.068905748 -0.092322096 0.12895152
0.069532938 -0.092322096 0.12895152
0.070186317 -0.092244551 0.12888765
0.070813723 -0.092244551 0.12888765
0.071414478 -0.092322096 0.12895152
0.072041661 -0.092322096 0.12895152
0.072614565 -0.092477202 0.12907927
0.073241286 -0.092477202 0.12907927
0.073840387 -0.092554763 0.12914315
0.074466862 -0.092554763 0.12914315
0.066974156 -0.092920363 0.12863611
0.067626126 -0.092842981 0.12857208
0.068253078 -0.092842981 0.12857208
0.068880014 -0.092842981 0.12857208
0.069532938 -0.092765585 0.12850803
0.070186317 -0.092688203 0.128444
0.070813723 -0.092688203 0.128444
0.071441144 -0.092688203 0.128444
0.072014757 -0.092842981 0.12857208
0.072641701 -0.092842981 0.12857208
0.073241286 -0.092920363 0.12863611
0.073867999 -0.092920363 0.12863611
0.074466862 -0.09299776 0.12870017
0.067575604 -0.093440741 0.12825717
0.068253078 -0.093286291 0.12812877
0.068905748 -0.093209058 0.12806454
0.069532938 -0.093209058 0.12806454
0.070186317 -0.093131855 0.12800035
0.070840165 -0.093054622 0.12793614
0.071441144 -0.093131855 0.12800035
0.072068557 -0.093131855 0.12800035
0.072641701 -0.093286291 0.12812877
0.073268652 -0.093286291 0.12812877
0.073840387 -0.093440741 0.12825717
0.068253078 -0.093729615 0.12768544
0.068905748 -0.093652546 0.12762107
0.069532938 -0.093652546 0.12762107
0.070186317 -0.093575507 0.1275567
0.070866592 -0.0934214 0.12742797
0.071467817 -0.093498439 0.12749232
0.072068557 -0.093575507 0.1275567
0.072695971 -0.093575507 0.1275567
0.073296025 -0.093652546 0.12762107
0.068457045 -0.093557835 0.12672584
0.069111593 -0.093480945 0.12666132
0.069844507 -0.0931734 0.12640318
0.070474498 -0.0931734 0.12640318
0.071104489 -0.0931734 0.12640318
0.071654484 -0.093404055 0.12659676
0.072203062 -0.093634725 0.12679039
0.072858788 -0.093557835 0.12672584
0.07343287 -0.093711615 0.12685493
0.070104152 -0.092851654 0.12531072
0.070710286 -0.09292838 0.1253754
0.071474545 -0.092544779 0.12505192
0.070857123 -0.091078669 0.1229825
0.071574852 -0.090848982 0.12278788
0.072293967 -0.090619326 0.1225933
0.072934501 -0.090619326 0.1225933
0.071168698 -0.090613887 0.12175018
0.071836837 -0.090537518 0.12168515
0.072452568 -0.090613887 0.12175018
0.073147833 -0.090461135 0.12162013
0.070655413 -0.090686694 0.12097028
0.071324483 -0.090610474 0.12090509
0.071994029 -0.09053424 0.12083988
0.072637595 -0.09053424 0.12083988
0.073307842 -0.090458035 0.12077469
0.0700633 -0.090989307 0.12038481
0.070784062 -0.09076114 0.12018874
0.071402378 -0.090837181 0.12025408
0.072072625 -0.09076114 0.12018874
0.072716892 -0.09076114 0.12018874
0.073414512 -0.090609014 0.120058
0.074059255 -0.090609014 0.120058
0.070216276 -0.090989038 0.11953658
0.07086125 -0.090989038 0.11953658
0.071506232 -0.090989038 0.11953658
0.072151214 -0.090989038 0.11953658
0.072849058 -0.09083724 0.11940552
0.07344117 -0.090989038 0.11953658
0.07413996 -0.09083724 0.11940552
0.074812539 -0.090761334 0.11933997
0.069126531 -0.090839282 0.11855495
0.069748126 -0.090915009 0.11862066
0.070394747 -0.090915009 0.11862066
0.071015634 -0.090990737 0.11868635
0.071662024 -0.090990737 0.11868635
0.072308414 -0.090990737 0.11868635
0.072954789 -0.090990737 0.11868635
0.073574513 -0.091066465 0.11875202
0.074247569 -0.090990737 0.11868635
0.074921079 -0.090915009 0.11862066
0.069301724 -0.090767741 0.11763655
0.069924966 -0.09084329 0.11770241
0.070573226 -0.09084329 0.11770241
0.071221478 -0.09084329 0.11770241
0.071843773 -0.090918869 0.11776827
0.072465606 -0.090994418 0.11783411
0.07306052 -0.091145545 0.11796583
0.073707849 -0.091145545 0.11796583
0.07435517 -0.091145545 0.11796583
0.075056762 -0.090994418 0.11783411
0.069451898 -0.09077391 0.11678185
0.070101798 -0.09077391 0.11678185
0.070751697 -0.09077391 0.11678185
0.071350127 -0.090924695 0.11691388
0.071947634 -0.091075495 0.11704594
0.072570391 -0.091150895 0.11711198
0.073192686 -0.091226295 0.11717799
0.073841184 -0.091226295 0.11717799
0.074489675 -0.091226295 0.11717799
0.075111032 -0.09130168 0.11724402
0.069124311 -0.090255469 0.11546184
0.069702171 -0.090481147 0.1156604
0.07027863 -0.09070684 0.11585897
0.070879176 -0.090857297 0.11599134
0.071504503 -0.090932548 0.11605754
0.072103426 -0.09108299 0.11618991
0.072701395 -0.091233462 0.11632229
0.073298417 -0.091383904 0.11645468
0.073921181 -0.09145917 0.11652087
0.07457038 -0.09145917 0.11652087
0.075192437 -0.091534376 0.11658706
0.069297872 -0.090191677 0.11453563
0.069902398 -0.090341821 0.11466834
0.070480719 -0.090567023 0.11486742
0.071057647 -0.090792209 0.11506648
0.071658894 -0.090942353 0.11519919
0.072207272 -0.091242626 0.11546463
0.07280618 -0.091392756 0.11559734
0.073430583 -0.091467813 0.11566368
0.074054524 -0.09154287 0.11573003
0.074704893 -0.09154287 0.11573003
0.069446631 -0.090205148 0.11367366
0.07002753 -0.090429857 0.11387321
0.070607036 -0.090654537 0.11407277
0.07121063 -0.090804338 0.11420581
0.071761817 -0.091103956 0.1144719
0.072363064 -0.091253743 0.11460495
0.072963379 -0.091403559 0.11473799
0.073536314 -0.091628253 0.11493756
0.074161187 -0.091703162 0.11500409
0.069011673 -0.089996397 0.11260961
0.069620185 -0.090145871 0.11274299
0.070177697 -0.090444818 0.11300975
0.070783868 -0.090594262 0.1131431
0.07133811 -0.090893209 0.11340986
0.071941927 -0.091042683 0.11354323
0.072518855 -0.09126687 0.11374329
0.073094368 -0.091491088 0.11394337
0.073721342 -0.091565818 0.11401004
0.069060795 -0.090312615 0.11201057
0.069694564 -0.090387166 0.1120774
0.070302837 -0.090536296 0.11221112
0.070884913 -0.090760022 0.11241169
0.071465589 -0.090983734 0.11261223
0.072070576 -0.091132864 0.11274594
0.072648674 -0.091356561 0.11294651
0.07325156 -0.091505706 0.1130802
0.073879942 -0.091580257 0.11314705
0.068548188 -0.090331852 0.11114277
0.069183588 -0.090406269 0.11120979
0.069768943 -0.090629473 0.11141086
0.070402943 -0.09070389 0.11147788
0.07101123 -0.090852663 0.1116119
0.071618564 -0.091001481 0.11174594
0.072199225 -0.0912247 0.11194701
0.072804458 -0.091373518 0.11208105
0.07340876 -0.091522306 0.11221506
0.074038535 -0.091596708 0.1122821
0.068621159 -0.090575814 0.11047457
0.069257274 -0.090650052 0.11054173
0.069892913 -0.090724304 0.11060894
0.070553109 -0.090724304 0.11060894
0.071137533 -0.090947002 0.11081047
0.071720548 -0.09116973 0.11101204
0.072353609 -0.091243953 0.11107922
0.072960243 -0.091392428 0.11121358
0.073565945 -0.091540903 0.11134796
0.074223571 -0.091540903 0.11134796
0.068767115 -0.090598539 0.10960329
0.069429189 -0.090598539 0.10960329
0.070041671 -0.090746686 0.10973799
0.070678249 -0.09082076 0.10980535
0.071263842 -0.091042981 0.11000741
0.071873523 -0.091191128 0.11014211
0.072507992 -0.091265187 0.11020944
0.073116034 -0.091413334 0.11034414
0.073723137 -0.091561481 0.11047885
0.068937384 -0.09054935 0.10866253
0.069601104 -0.09054935 0.10866253
0.070215225 -0.090697169 0.10879757
0.070853442 -0.090771094 0.10886508
0.071440674 -0.090992808 0.10906763
0.072051995 -0.091140628 0.10920265
0.072688103 -0.091214508 0.10927017
0.073297784 -0.091362327 0.1094052
0.069083333 -0.090576246 0.10778713
0.069748454 -0.090576246 0.10778713
0.070388779 -0.090649977 0.10785481
0.071028642 -0.090723708 0.10792249
0.071668029 -0.090797469 0.10799018
0.072255969 -0.091018677 0.1081932
0.072893947 -0.091092438 0.1082609
0.073531464 -0.091166154 0.10832858
0.069229282 -0.090605095 0.10690975
0.069920376 -0.090531513 0.10684189
0.070587136 -0.090531513 0.10684189
0.071228862 -0.090605095 0.10690975
0.071844868 -0.090752259 0.10704544
0.072485432 -0.090825826 0.10711327
0.073151253 -0.090825826 0.10711327
0.073765151 -0.09097296 0.10724898
0.068803668 -0.090342298 0.10575831
0.069423892 -0.090489119 0.10589434
0.070092291 -0.090489119 0.10589434
0.07076069 -0.090489119 0.10589434
0.071404055 -0.090562537 0.10596237
0.072046965 -0.09063594 0.10603037
0.072689399 -0.090709358 0.1060984
0.074024789 -0.090709358 0.1060984
0.068948209 -0.090375811 0.10487629
0.069618486 -0.090375811 0.10487629
0.07031332 -0.090302557 0.10480811
0.070959032 -0.090375811 0.10487629
0.071579248 -0.090522304 0.10501266
0.072223797 -0.090595543 0.10508083
0.072918862 -0.090522304 0.10501266
0.073562935 -0.090595543 0.10508083
0.074232511 -0.090595543 0.10508083
0.069140941 -0.090265125 0.10385559
0.069788761 -0.090338215 0.10392395
0.070485234 -0.090265125 0.10385559
0.071157381 -0.090265125 0.10385559
0.071804494 -0.090338215 0.10392395
0.072451152 -0.090411291 0.10399228
0.073122837 -0.090411291 0.10399228
0.073743045 -0.090557456 0.10412897
0.068707362 -0.090011299 0.10269523
0.069333665 -0.090157107 0.10283226
0.070007689 -0.090157107 0.10283226
0.070681706 -0.090157107 0.10283226
0.07135573 -0.090157107 0.10283226
0.072004721 -0.090230018 0.10290076
0.072653241 -0.090302944 0.10296927
0.073326796 -0.090302944 0.10296927
0.074000344 -0.090302944 0.10296927
0.068874359 -0.089979008 0.10173757
0.069526397 -0.090051726 0.10180625
0.070202291 -0.090051726 0.10180625
0.070853621 -0.090124488 0.10187493
0.071479701 -0.090269968 0.10201228
0.072154887 -0.090269968 0.10201228
0.072804816 -0.09034273 0.10208096
0.073479779 -0.09034273 0.10208096
0.074180469 -0.090269968 0.10201228
0.0690175 -0.090021595 0.10084644
0.069695033 -0.090021595 0.10084644
0.07034824 -0.090094179 0.1009153
0.071000978 -0.090166762 0.10098413
0.071678042 -0.090166762 0.10098413
0.072305053 -0.09031193 0.10112181
0.072956391 -0.090384498 0.10119063
0.073632762 -0.090384498 0.10119063
0.074309118 -0.090384498 0.10119063
0.068552569 -0.089848936 0.099746302
0.069184497 -0.089993775 0.099884316
0.069839582 -0.09006618 0.099953324
0.070469871 -0.090211019 0.10009132
0.071148336 -0.090211019 0.10009132
0.071802013 -0.090283453 0.10016035
0.072430186 -0.090428278 0.10029835
0.0730827 -0.090500683 0.10036735
0.073760234 -0.090500683 0.10036735
0.074437767 -0.090500683 0.10036735
0.067989863 -0.089968264 0.098919868
0.068623438 -0.090112776 0.099058226
0.069279924 -0.090185016 0.099127382
0.06993594 -0.090257287 0.099196553
0.070542842 -0.090474024 0.099404067
0.071271136 -0.090329513 0.099265724
0.071876399 -0.090546265 0.099473238
0.072555333 -0.090546265 0.099473238
0.07320901 -0.090618521 0.099542424
0.073887713 -0.090618521 0.099542424
0.074566416 -0.090618521 0.099542424
0.067378514 -0.090233445 0.098230451
0.068036646 -0.090305507 0.098299786
0.068717927 -0.090305507 0.098299786
0.069375351 -0.090377584 0.098369122
0.070056401 -0.090377584 0.098369122
0.070713118 -0.090449676 0.098438472
0.071344808 -0.09059386 0.098577142
0.072000362 -0.090665936 0.098646462
0.072655439 -0.090738028 0.098715812
0.07333532 -0.090738028 0.098715812
0.073989704 -0.09081009 0.098785147
0.074695066 -0.090738028 0.098715812
0.066765763 -0.090499565 0.097540051
0.067447983 -0.090499565 0.097540051
0.068130195 -0.090499565 0.097540051
0.068788789 -0.090571493 0.097609565
0.069470771 -0.090571493 0.097609565
0.070104577 -0.090715349 0.097748548
0.070786089 -0.090715349 0.097748548
0.071443051 -0.090787247 0.097818047
0.072124325 -0.090787247 0.097818047
0.072780579 -0.09085916 0.097887546
0.073461629 -0.09085916 0.097887546
0.074117184 -0.090931088 0.09795706
0.074797988 -0.090931088 0.09795706
0.06685745 -0.090694949 0.096778959
0.067494288 -0.090838462 0.0969183
0.068176977 -0.090838462 0.0969183
0.068859667 -0.090838462 0.0969183
0.069518492 -0.090910226 0.096987978
0.07022503 -0.090838462 0.0969183
0.070883393 -0.090910226 0.096987978
0.071541287 -0.090981975 0.097057641
0.072198704 -0.091053739 0.097127318
0.072880685 -0.091053739 0.097127318
0.073562674 -0.091053739 0.097127318
0.074244663 -0.091053739 0.097127318
0.066903278 -0.091034859 0.096156254
0.067586899 -0.091034859 0.096156254
0.068270527 -0.091034859 0.096156254
0.068930529 -0.09110643 0.096226066
0.069637768 -0.091034859 0.096156254
0.070321389 -0.091034859 0.096156254
0.070980698 -0.09110643 0.096226066
0.07166408 -0.09110643 0.096226066
0.072322682 -0.091178015 0.096295893
0.073030859 -0.09110643 0.096226066
0.073688991 -0.091178015 0.096295893
0.07437215 -0.091178015 0.096295893
0.067017883 -0.091161117 0.095322847
0.06772583 -0.091089696 0.095252857
0.068387471 -0.091161117 0.095322847
0.069072269 -0.091161117 0.095322847
0.069757059 -0.091161117 0.095322847
0.07044185 -0.091161117 0.095322847
0.071126647 -0.091161117 0.095322847
0.07178688 -0.091232553 0.095392853
0.072471432 -0.091232553 0.095392853
0.073181026 -0.091161117 0.095322847
0.073840559 -0.091232553 0.095392853
0.074525118 -0.091232553 0.095392853
0.06644652 -0.091289058 0.094487816
0.067109562 -0.091360331 0.094557986
0.067818448 -0.091289058 0.094487816
0.068504408 -0.091289058 0.094487816
0.06916675 -0.091360331 0.094557986
0.069876343 -0.091289058 0.094487816
0.070562303 -0.091289058 0.094487816
0.071248271 -0.091289058 0.094487816
0.071934238 -0.091289058 0.094487816
0.072620198 -0.091289058 0.094487816
0.073281132 -0.091360331 0.094557986
0.073966861 -0.091360331 0.094557986
0.067201242 -0.091560841 0.093791768
0.067911066 -0.091489732 0.093721434
0.068597965 -0.091489732 0.093721434
0.069284871 -0.091489732 0.093721434
0.069995627 -0.091418669 0.093651101
0.070706852 -0.091347545 0.093580768
0.071394227 -0.091347545 0.093580768
0.072081596 -0.091347545 0.093580768
0.072744168 -0.091418669 0.093651101
0.073431298 -0.091418669 0.093651101
0.074118435 -0.091418669 0.093651101
0.066582635 -0.091833591 0.093094721
0.067315839 -0.091691762 0.092953756
0.068026833 -0.091620833 0.092883244
0.068738289 -0.091549918 0.092812747
0.069497474 -0.091337115 0.092601255
0.070186481 -0.091337115 0.092601255
0.070923671 -0.091195285 0.092460245
0.071564503 -0.091337115 0.092601255
0.07225351 -0.091337115 0.092601255
0.072967306 -0.091266215 0.092530772
0.073631525 -0.091337115 0.092601255
0.07427001 -0.091478974 0.092742249
0.066741429 -0.091824323 0.092114046
0.067430444 -0.091824323 0.092114046
0.068188913 -0.091612056 0.091902077
0.068948783 -0.091399774 0.091690093
0.069662832 -0.091329008 0.091619417
0.070448905 -0.091045976 0.091336772
0.07114049 -0.091045976 0.091336772
0.07180775 -0.091116741 0.091407448
0.072499096 -0.091116741 0.091407448
0.07314086 -0.091258273 0.091548771
0.073831744 -0.091258273 0.091548771
0.074497372 -0.091329008 0.091619417
0.067567959 -0.091887981 0.091201887
0.068350993 -0.091605604 0.090918586
0.069089122 -0.0914644 0.090776935
0.069851808 -0.09125264 0.090564445
0.070639752 -0.090970248 0.090281144
0.071333215 -0.090970248 0.090281144
0.071978025 -0.091111436 0.090422809
0.072671011 -0.091111436 0.090422809
0.073364004 -0.091111436 0.090422809
0.07405699 -0.091111436 0.090422809
0.06846676 -0.091742322 0.090074763
0.069252834 -0.0914606 0.089790791
0.070040792 -0.091178879 0.089506805
0.0707829 -0.091038018 0.089364842
0.071501851 -0.090967596 0.089293852
0.072172627 -0.091038018 0.089364842
0.072842926 -0.091108456 0.089435846
0.073562354 -0.091038018 0.089364842
0.074232183 -0.091108456 0.089435846
0.068698302 -0.091529369 0.088873491
0.069416553 -0.09145911 0.088802338
0.070206143 -0.091178045 0.088517696
0.070997611 -0.090896994 0.088233069
0.071694583 -0.090896994 0.088233069
0.072391555 -0.090896994 0.088233069
0.073088527 -0.090896994 0.088233069
0.073785499 -0.090896994 0.088233069
0.069697209 -0.091109455 0.08745496
0.070513241 -0.09075895 0.087098315
0.071283884 -0.090548664 0.08688435
0.071983665 -0.090548664 0.08688435
0.072659135 -0.090618744 0.086955667
0.073309556 -0.09075895 0.087098315
0.073983841 -0.090829059 0.087169647
0.070164979 -0.090204298 0.085531667
0.070891201 -0.090134367 0.085460156
0.071522452 -0.090344176 0.085674644
0.072176397 -0.090484008 0.085817605
0.072878055 -0.090484008 0.085817605
0.073579714 -0.090484008 0.085817605
0.074206978 -0.090693831 0.086032078
0.069763392 -0.089794159 0.084103331
0.070445642 -0.089863911 0.084174976
0.071151048 -0.089863911 0.084174976
0.07176102 -0.09014298 0.0844616
0.072369121 -0.090422049 0.084748223
0.073072657 -0.090422049 0.084748223
0.073727064 -0.090561569 0.084891543
0.069424473 -0.089179501 0.082455248
0.070110708 -0.089249104 0.082527041
0.07077308 -0.089388296 0.082670689
0.071458139 -0.089457914 0.082742527
0.072071165 -0.089736298 0.083029792
0.072706394 -0.089945123 0.083245263
0.073461853 -0.089805916 0.08310163
0.074095458 -0.090014696 0.083317086
0 0 0 1 0 0 0 1 0 0 0 1 0 0 0 0 0 530 1 0 0
