ply
format ascii 1.0
comment PCL generated
element vertex 512
property float x
property float y
property float z
element camera 1
property float view_px
property float view_py
property float view_pz
property float x_axisx
property float x_axisy
property float x_axisz
property float y_axisx
property float y_axisy
property float y_axisz
property float z_axisx
property float z_axisy
property float z_axisz
property float focal
property float scalex
property float scaley
property float centerx
property float centery
property int viewportx
property int viewporty
property float k1
property float k2
end_header
0.069714688 -0.088666752 0.13161692
0.070369706 -0.088588044 0.13155422
0.070972323 -0.088666752 0.13161692
0.068431549 -0.089189947 0.13123517
0.069060132 -0.089189947 0.13123517
0.069688715 -0.089189947 0.13123517
0.070317306 -0.089189947 0.13123517
0.070945889 -0.089189947 0.13123517
0.071574479 -0.089189947 0.13123517
0.072149262 -0.089347035 0.13136092
0.067752436 -0.089791179 0.13091677
0.068406053 -0.089712799 0.13085373
0.069060132 -0.089634418 0.13079068
0.069688715 -0.089634418 0.13079068
0.070317306 -0.089634418 0.13079068
0.070945889 -0.089634418 0.13079068
0.071547814 -0.089712799 0.13085373
0.072122365 -0.089869559 0.13097982
0.072750241 -0.089869559 0.13097982
0.073350765 -0.089947909 0.13104284
0.067099288 -0.090313539 0.13053584
0.067727178 -0.090313539 0.13053584
0.068380557 -0.090235338 0.13047263
0.069008671 -0.090235338 0.13047263
0.069662757 -0.090157107 0.13040942
0.070291109 -0.090157107 0.13040942
0.070893019 -0.090235338 0.13047263
0.071521141 -0.090235338 0.13047263
0.072122365 -0.090313539 0.13053584
0.072723113 -0.090391725 0.13059902
0.073323391 -0.090469956 0.13066225
0.073923208 -0.090548158 0.13072546
0.066446617 -0.090835541 0.13015521
0.067074262 -0.090835541 0.13015521
0.067701921 -0.090835541 0.13015521
0.068355061 -0.090757519 0.13009186
0.069008671 -0.090679482 0.13002849
0.069636784 -0.090679482 0.13002849
0.070291109 -0.090601414 0.1299651
0.070893019 -0.090679482 0.13002849
0.071467817 -0.090835541 0.13015521
0.072095469 -0.090835541 0.13015521
0.072695971 -0.090913609 0.1302186
0.073323391 -0.090913609 0.1302186
0.073895596 -0.091069698 0.13034534
0.07452254 -0.091069698 0.13034534
0.066397026 -0.091435134 0.12983848
0.067024209 -0.091435134 0.12983848
0.067676648 -0.091357261 0.12977494
0.068329573 -0.091279358 0.12971139
0.068957217 -0.091279358 0.12971139
0.069610827 -0.091201499 0.12964788
0.070238717 -0.091201499 0.12964788
0.070866592 -0.091201499 0.12964788
0.071467817 -0.091279358 0.12971139
0.072095469 -0.091279358 0.12971139
0.072668836 -0.091435134 0.12983848
0.073296025 -0.091435134 0.12983848
0.073895596 -0.091513023 0.12990203
0.074494705 -0.091590896 0.12996557
0.066397026 -0.091878608 0.12939501
0.067024209 -0.091878608 0.12939501
0.067651391 -0.091878608 0.12939501
0.068304069 -0.091800898 0.12933129
0.068957217 -0.091723174 0.12926759
0.069584869 -0.091723174 0.12926759
0.070238717 -0.091645479 0.1292039
0.070866592 -0.091645479 0.1292039
0.071467817 -0.091723174 0.12926759
0.072095469 -0.091723174 0.12926759
0.072668836 -0.091878608 0.12939501
0.073296025 -0.091878608 0.12939501
0.073895596 -0.091956347 0.12945871
0.074494705 -0.092034042 0.12952241
0.075121418 -0.092034042 0.12952241
0.066372231 -0.092399657 0.1290154
0.067024209 -0.092322096 0.12895152
0.067651391 -0.092322096 0.12895152
0.068304069 -0.092244551 0.12888765
0.068931475 -0.092244551 0.12888765
0.069584869 -0.09216699 0.12882377
0.070238717 -0.092089459 0.12875992
0.070866592 -0.092089459 0.12875992
0.071467817 -0.09216699 0.12882377
0.072095469 -0.09216699 0.12882377
0.072695971 -0.092244551 0.12888765
0.073296025 -0.092322096 0.12895152
0.073895596 -0.092399657 0.1290154
0.07452254 -0.092399657 0.1290154
0.075121418 -0.092477202 0.12907927
0.066397026 -0.092765585 0.12850803
0.067024209 -0.092765585 0.12850803
0.067651391 -0.092765585 0.12850803
0.068304069 -0.092688203 0.128444
0.068957217 -0.092610806 0.12837996
0.069610827 -0.092533439 0.12831593
0.070238717 -0.092533439 0.12831593
0.070893019 -0.092456073 0.1282519
0.071521141 -0.092456073 0.1282519
0.072095469 -0.092610806 0.12837996
0.072723113 -0.092610806 0.12837996
0.073323391 -0.092688203 0.128444
0.073950805 -0.092688203 0.128444
0.074550383 -0.092765585 0.12850803
0.067024209 -0.093209058 0.12806454
0.067701921 -0.093054622 0.12793614
0.068329573 -0.093054622 0.12793614
0.068982944 -0.092977419 0.12787196
0.069636784 -0.092900217 0.12780775
0.070264906 -0.092900217 0.12780775
0.070893019 -0.092900217 0.12780775
0.071547814 -0.092822984 0.12774354
0.072122365 -0.092977419 0.12787196
0.072750241 -0.092977419 0.12787196
0.073350765 -0.093054622 0.12793614
0.073950805 -0.093131855 0.12800035
0.074550383 -0.093209058 0.12806454
0.067074262 -0.093498439 0.12749232
0.067676648 -0.093575507 0.1275567
0.068355061 -0.0934214 0.12742797
0.068982944 -0.0934214 0.12742797
0.069636784 -0.093344361 0.12736361
0.070291109 -0.093267292 0.12729923
0.070998751 -0.09303613 0.12710613
0.071601145 -0.093113184 0.12717049
0.072229974 -0.093113184 0.12717049
0.072804518 -0.093267292 0.12729923
0.073405497 -0.093344361 0.12736361
0.073950805 -0.093575507 0.1275567
0.067802958 -0.093634725 0.12679039
0.068533532 -0.09332718 0.12653224
0.069214515 -0.0931734 0.12640318
0.069844507 -0.0931734 0.12640318
0.070526898 -0.09301962 0.12627411
0.071157351 -0.09301962 0.12627411
0.071734481 -0.0931734 0.12640318
0.072310671 -0.09332718 0.12653224
0.072913058 -0.093404055 0.12659676
0.073460236 -0.093634725 0.12679039
0.074033618 -0.093788505 0.12691946
0.068737507 -0.093158528 0.12556949
0.069394626 -0.093081817 0.12550482
0.070026256 -0.093081817 0.12550482
0.070631698 -0.093158528 0.12556949
0.071236648 -0.093235269 0.12563421
0.071841151 -0.093311965 0.12569889
0.072445177 -0.093388706 0.12576361
0.072967328 -0.093695566 0.1260224
0.073542349 -0.093849018 0.1261518
0.068282939 -0.093069106 0.12466897
0.068941474 -0.092992559 0.12460414
0.069703385 -0.092609778 0.1242798
0.070182048 -0.093069106 0.12466897
0.070815086 -0.093069106 0.12466897
0.071421683 -0.093145669 0.12473385
0.072054483 -0.093145669 0.12473385
0.073130138 -0.093681574 0.1251879
0.071339063 -0.091988921 0.12292074
0.071897469 -0.092218101 0.12311584
0.072135366 -0.091982514 0.12207863
0.071298517 -0.091141433 0.12051554
0.071967825 -0.091065377 0.12045018
0.072611161 -0.091065377 0.12045018
0.070267268 -0.09083724 0.11940552
0.070912711 -0.09083724 0.11940552
0.071636058 -0.090609565 0.11920892
0.072308414 -0.090533674 0.11914341
0.072981216 -0.090457782 0.11907789
0.073627844 -0.090457782 0.11907789
0.069722869 -0.090990737 0.11868635
0.070369251 -0.090990737 0.11868635
0.07104136 -0.090915009 0.11862066
0.071687981 -0.090915009 0.11862066
0.072465606 -0.090536371 0.11829217
0.07306052 -0.090687811 0.11842357
0.073867843 -0.09023346 0.11802942
0.069924966 -0.09084329 0.11770241
0.070598722 -0.090767741 0.11763655
0.071247205 -0.090767741 0.11763655
0.071921661 -0.090692177 0.1175707
0.072701395 -0.090314358 0.1172414
0.073351286 -0.090314358 0.1172414
0.074027851 -0.09023881 0.11717553
0.07015232 -0.090623111 0.11664979
0.070777193 -0.09069851 0.11671583
0.071427315 -0.09069851 0.11671583
0.072077453 -0.09069851 0.11671583
0.072727591 -0.09069851 0.11671583
0.073404156 -0.090623111 0.11664979
0.074054524 -0.090623111 0.11664979
0.069752224 -0.090330675 0.11552802
0.070354417 -0.090481147 0.1156604
0.070930168 -0.09070684 0.11585897
0.071555965 -0.090782076 0.11592516
0.072207272 -0.090782076 0.11592516
0.072832383 -0.090857297 0.11599134
0.073483452 -0.090857297 0.11599134
0.074161187 -0.090782076 0.11592516
0.069952451 -0.090191677 0.11453563
0.070556514 -0.090341821 0.11466834
0.071134135 -0.090567023 0.11486742
0.071736082 -0.090717167 0.11500014
0.072337106 -0.090867266 0.11513284
0.072989583 -0.090867266 0.11513284
0.073615611 -0.090942353 0.11519919
0.074267857 -0.090942353 0.11519919
0.074920096 -0.090942353 0.11519919
0.069570594 -0.089830667 0.11334105
0.070127644 -0.09013024 0.11360712
0.070682824 -0.090429857 0.11387321
0.071287118 -0.090579659 0.11400625
0.071864739 -0.090804338 0.11420581
0.072440952 -0.091029063 0.11440539
0.073068172 -0.091103956 0.1144719
0.073694907 -0.091178864 0.11453845
0.074347854 -0.091178864 0.11453845
0.0750008 -0.091178864 0.11453845
0.069719359 -0.089846939 0.11247624
0.07027781 -0.090145871 0.11274299
0.070859656 -0.090370074 0.11294305
0.071440093 -0.090594262 0.1131431
0.071993388 -0.090893209 0.11340986
0.072596744 -0.091042683 0.11354323
0.073225372 -0.091117397 0.11360991
0.073853508 -0.091192141 0.11367661
0.074481197 -0.09126687 0.11374329
0.069208153 -0.089865178 0.11160944
0.069768943 -0.090163469 0.11187686
0.070377916 -0.090312615 0.11201057
0.070985958 -0.090461731 0.11214426
0.071593069 -0.090610877 0.11227798
0.072147764 -0.090909168 0.1125454
0.072752535 -0.091058284 0.11267908
0.07335636 -0.09120743 0.11281279
0.073959239 -0.091356561 0.11294651
0.068669811 -0.089959845 0.11080769
0.069281831 -0.090108648 0.11094174
0.069892913 -0.090257466 0.11107577
0.070503056 -0.090406269 0.11120979
0.071137533 -0.090480655 0.11127682
0.071695052 -0.090778291 0.11154489
0.072276421 -0.091001481 0.11174594
0.072856389 -0.0912247 0.11194701
0.073461153 -0.091373518 0.11208105
0.074117832 -0.091373518 0.11208105
0.068742782 -0.090204641 0.11013864
0.069380067 -0.090278864 0.11020581
0.070016876 -0.090353101 0.11027302
0.070653223 -0.090427339 0.11034019
0.071238585 -0.090650052 0.11054173
0.071822532 -0.090872765 0.1107433
0.072456531 -0.090947002 0.11081047
0.073038138 -0.09116973 0.11101204
0.074302875 -0.091318175 0.11114639
0.068273671 -0.090080038 0.10913184
0.068888739 -0.090228185 0.10926655
0.069527417 -0.090302259 0.1093339
0.070116051 -0.09052448 0.10953596
0.070753336 -0.090598539 0.10960329
0.071364895 -0.090746686 0.10973799
0.071975507 -0.090894833 0.1098727
0.072559454 -0.091117054 0.11007473
0.07319393 -0.091191128 0.11014211
0.073827937 -0.091265187 0.11020944
0.069034688 -0.090253726 0.10839248
0.069674775 -0.09032765 0.10845999
0.070264816 -0.09054935 0.10866253
0.070903495 -0.090623289 0.10873005
0.071541727 -0.090697169 0.10879757
0.072077498 -0.091066688 0.10913514
0.07271383 -0.091140628 0.10920265
0.073349714 -0.091214508 0.10927017
0.069229282 -0.090133786 0.10738105
0.06984669 -0.090281278 0.10751642
0.07043837 -0.090502486 0.10771945
0.071078695 -0.090576246 0.10778713
0.071693301 -0.090723708 0.10792249
0.072281457 -0.090944946 0.10812555
0.072893947 -0.091092438 0.1082609
0.073531464 -0.091166154 0.10832858
0.068755485 -0.090016484 0.10636698
0.069399558 -0.090090081 0.10643482
0.070018604 -0.09023723 0.10657053
0.070611924 -0.090457946 0.10677405
0.071228862 -0.090605095 0.10690975
0.071870133 -0.090678662 0.10697758
0.07243444 -0.09097296 0.10724898
0.073048331 -0.091120124 0.10738467
0.073687255 -0.091193691 0.10745251
0.06834951 -0.08968161 0.1051462
0.068948209 -0.08990185 0.10535026
0.069569834 -0.090048671 0.10548629
0.070165962 -0.09026891 0.1056903
0.070810273 -0.090342298 0.10575831
0.071379028 -0.09063594 0.10603037
0.0720217 -0.090709358 0.1060984
0.072612911 -0.090929583 0.10630241
0.07389497 -0.091076404 0.10643844
0.068492651 -0.089716613 0.10426269
0.069116846 -0.089863107 0.10439906
0.069691464 -0.090156063 0.10467175
0.070362441 -0.090156063 0.10467175
0.070983827 -0.090302557 0.10480811
0.071579248 -0.090522304 0.10501266
0.072198533 -0.090668797 0.10514902
0.07286787 -0.090668797 0.10514902
0.068611935 -0.089826673 0.10344554
0.069285482 -0.089826673 0.10344554
0.06986174 -0.09011896 0.10371891
0.070485234 -0.090265125 0.10385559
0.071157381 -0.090265125 0.10385559
0.071804494 -0.090338215 0.10392395
0.07240063 -0.090557456 0.10412897
0.073046349 -0.090630502 0.10419729
0.073665857 -0.090776667 0.104334
0.06808012 -0.089865461 0.10255823
0.068731219 -0.089938357 0.10262671
0.069381848 -0.090011299 0.10269523
0.070007689 -0.090157107 0.10283226
0.070657149 -0.090230018 0.10290076
0.071330935 -0.090230018 0.10290076
0.071979687 -0.090302944 0.10296927
0.072627984 -0.090375856 0.10303777
0.07322482 -0.090594575 0.10324329
0.073897429 -0.090594575 0.10324329
0.068174608 -0.090051726 0.10180625
0.068850502 -0.090051726 0.10180625
0.069526397 -0.090051726 0.10180625
0.070177965 -0.090124488 0.10187493
0.070853621 -0.090124488 0.10187493
0.071479701 -0.090269968 0.10201228
0.072129861 -0.09034273 0.10208096
0.072804816 -0.09034273 0.10208096
0.073479779 -0.09034273 0.10208096
0.074129 -0.090415463 0.10214961
0.067662433 -0.090021595 0.10084644
0.068292722 -0.090166762 0.10098413
0.068993635 -0.090094179 0.1009153
0.06964685 -0.090166762 0.10098413
0.070323914 -0.090166762 0.10098413
0.071000978 -0.090166762 0.10098413
0.071678042 -0.090166762 0.10098413
0.072305053 -0.09031193 0.10112181
0.072981648 -0.09031193 0.10112181
0.073632762 -0.090384498 0.10119063
0.074334845 -0.09031193 0.10112181
0.067755982 -0.090211019 0.10009132
0.068410829 -0.090283453 0.10016035
0.06908907 -0.090283453 0.10016035
0.069767304 -0.090283453 0.10016035
0.070445538 -0.090283453 0.10016035
0.071123779 -0.090283453 0.10016035
0.071752422 -0.090428278 0.10029835
0.072430186 -0.090428278 0.10029835
0.0730827 -0.090500683 0.10036735
0.073760234 -0.090500683 0.10036735
0.074437767 -0.090500683 0.10036735
0.067826152 -0.090474024 0.099404067
0.068481706 -0.090546265 0.099473238
0.06916064 -0.090546265 0.099473238
0.069839582 -0.090546265 0.099473238
0.070518523 -0.090546265 0.099473238
0.071197458 -0.090546265 0.099473238
0.071876399 -0.090546265 0.099473238
0.072530299 -0.090618521 0.099542424
0.07320901 -0.090618521 0.099542424
0.073887713 -0.090618521 0.099542424
0.074566416 -0.090618521 0.099542424
0.067919701 -0.090665936 0.098646462
0.068576187 -0.090738028 0.098715812
0.06925606 -0.090738028 0.098715812
0.069960035 -0.090665936 0.098646462
0.070615813 -0.090738028 0.098715812
0.071320251 -0.090665936 0.098646462
0.071975566 -0.090738028 0.098715812
0.072630413 -0.09081009 0.098785147
0.073310055 -0.09081009 0.098785147
0.073938712 -0.090954274 0.098923817
0.074669339 -0.09081009 0.098785147
0.068036646 -0.090787247 0.097818047
0.068694308 -0.09085916 0.097887546
0.069375351 -0.09085916 0.097887546
0.070080489 -0.090787247 0.097818047
0.070713118 -0.090931088 0.09795706
0.071418494 -0.09085916 0.097887546
0.072099537 -0.09085916 0.097887546
0.072755553 -0.090931088 0.09795706
0.073436365 -0.090931088 0.09795706
0.074117184 -0.090931088 0.09795706
0.074797988 -0.090931088 0.09795706
0.068836041 -0.090910226 0.096987978
0.069542348 -0.090838462 0.0969183
0.070200935 -0.090910226 0.096987978
0.070859075 -0.090981975 0.097057641
0.071565844 -0.090910226 0.096987978
0.072223507 -0.090981975 0.097057641
0.072880685 -0.091053739 0.097127318
0.073562674 -0.091053739 0.097127318
0.074244663 -0.091053739 0.097127318
0.074926637 -0.091053739 0.097127318
0.069001392 -0.090891674 0.096016586
0.069733202 -0.090748489 0.095876917
0.070369571 -0.090891674 0.096016586
0.071029343 -0.090963259 0.096086398
0.071688637 -0.091034859 0.096156254
0.07234747 -0.09110643 0.096226066
0.073005833 -0.091178015 0.096295893
0.073688991 -0.091178015 0.096295893
0.07437215 -0.091178015 0.096295893
0.068504408 -0.090804011 0.094972864
0.06916675 -0.090875447 0.095042869
0.069876343 -0.090804011 0.094972864
0.070538208 -0.090875447 0.095042869
0.0711753 -0.091018274 0.095182836
0.071811438 -0.091161117 0.095322847
0.072471432 -0.091232553 0.095392853
0.073155992 -0.091232553 0.095392853
0.073840559 -0.091232553 0.095392853
0.074525118 -0.091232553 0.095392853
0.068003677 -0.090719014 0.093926504
0.06864474 -0.090861514 0.094066799
0.069332115 -0.090861514 0.094066799
0.069995627 -0.090932786 0.094136983
0.070682757 -0.090932786 0.094136983
0.071345575 -0.091004029 0.094207138
0.071958795 -0.091217816 0.094417647
0.072620198 -0.091289058 0.094487816
0.073306166 -0.091289058 0.094487816
0.073966861 -0.091360331 0.094557986
0.074652597 -0.091360331 0.094557986
0.0681426 -0.090778843 0.093018144
0.068831846 -0.090778843 0.093018144
0.069521092 -0.090778843 0.093018144
0.070186481 -0.090849921 0.093088448
0.070875488 -0.090849921 0.093088448
0.071491517 -0.091063201 0.093299463
0.07213071 -0.091205388 0.09344013
0.07281854 -0.091205388 0.09344013
0.073506378 -0.091205388 0.09344013
0.0741437 -0.091347545 0.093580768
0.074805573 -0.091418669 0.093651101
0.068281531 -0.090840638 0.092107788
0.068972178 -0.090840638 0.092107788
0.06968645 -0.090769738 0.092037305
0.070353478 -0.090840638 0.092107788
0.071020029 -0.090911582 0.092178285
0.071686126 -0.090982497 0.092248783
0.072302625 -0.091195285 0.092460245
0.072992101 -0.091195285 0.092460245
0.073681578 -0.091195285 0.092460245
0.068397298 -0.09097521 0.091266125
0.069135897 -0.090833694 0.091124788
0.06982819 -0.090833694 0.091124788
0.070544325 -0.090762943 0.091054142
0.071212761 -0.090833694 0.091124788
0.071905054 -0.090833694 0.091124788
0.072523661 -0.091045976 0.091336772
0.073215246 -0.091045976 0.091336772
0.073881797 -0.091116741 0.091407448
0.074522629 -0.091258273 0.091548771
0.068559378 -0.090970248 0.090281144
0.069252834 -0.090970248 0.090281144
0.069969922 -0.090899646 0.090210304
0.070663616 -0.090899646 0.090210304
0.071333215 -0.090970248 0.090281144
0.072051004 -0.090899646 0.090210304
0.072671011 -0.091111436 0.090422809
0.073364004 -0.091111436 0.090422809
0.074031964 -0.091182038 0.090493605
0.069393165 -0.091038018 0.089364842
0.070158899 -0.090826735 0.089151859
0.070854463 -0.090826735 0.089151859
0.071477763 -0.091038018 0.089364842
0.072196953 -0.090967596 0.089293852
0.07286749 -0.091038018 0.089364842
0.073562354 -0.091038018 0.089364842
0.074232183 -0.091108456 0.089435846
0.070395119 -0.090615958 0.087948456
0.071069174 -0.090686202 0.088019595
0.07171867 -0.090826735 0.088161916
0.072415873 -0.090826735 0.088161916
0.073088527 -0.090896994 0.088233069
0.073760696 -0.090967268 0.088304237
0.070631355 -0.090408474 0.086741701
0.071307741 -0.090478584 0.086813033
0.071959578 -0.090618744 0.086955667
0.072586149 -0.090829059 0.087169647
0.073284999 -0.090829059 0.087169647
0.07385987 -0.091179535 0.087526262
0.070281923 -0.089854643 0.085174188
0.070962064 -0.089924589 0.085245684
0.071570165 -0.090204298 0.085531667
0.072176397 -0.090484008 0.085817605
0.072829403 -0.090623885 0.085960582
0.073506027 -0.090693831 0.086032078
0.070539191 -0.089584857 0.083888367
0.071174666 -0.089794159 0.084103331
0.071784876 -0.090073213 0.084389955
0.072369121 -0.090422049 0.084748223
0.072999679 -0.090631336 0.084963188
0.073677942 -0.090701118 0.085034847
0.069607839 -0.088622689 0.081880674
0.070226476 -0.088901088 0.082167953
0.070843242 -0.089179501 0.082455248
0.071481764 -0.089388296 0.082670689
0.072142728 -0.089527503 0.082814336
0.072754577 -0.089805916 0.08310163
0.073461853 -0.089805916 0.08310163
0.071053736 -0.089056194 0.081305757
0.071741611 -0.089125633 0.081377745
0.072476722 -0.089056194 0.081305757
0.073188215 -0.089056194 0.081305757
0 0 0 1 0 0 0 1 0 0 0 1 0 0 0 0 0 512 1 0 0
