ply
format ascii 1.0
comment PCL generated
element vertex 497
property float x
property float y
property float z
element camera 1
property float view_px
property float view_py
property float view_pz
property float x_axisx
property float x_axisy
property float x_axisz
property float y_axisx
property float y_axisy
property float y_axisz
property float z_axisx
property float z_axisy
property float z_axisz
property float focal
property float scalex
property float scaley
property float centerx
property float centery
property int viewportx
property int viewporty
property float k1
property float k2
end_header
0.070369706 -0.088588044 0.13155422
0.070998751 -0.088588044 0.13155422
0.068431549 -0.089189947 0.13123517
0.069060132 -0.089189947 0.13123517
0.069714688 -0.089111388 0.13117227
0.070343509 -0.089111388 0.13117227
0.070972323 -0.089111388 0.13117227
0.071574479 -0.089189947 0.13123517
0.067124315 -0.089791179 0.13091677
0.067777701 -0.089712799 0.13085373
0.068406053 -0.089712799 0.13085373
0.069060132 -0.089634418 0.13079068
0.069688715 -0.089634418 0.13079068
0.070343509 -0.089556038 0.13072763
0.070945889 -0.089634418 0.13079068
0.071547814 -0.089712799 0.13085373
0.072149262 -0.089791179 0.13091677
0.072777376 -0.089791179 0.13091677
0.067099288 -0.090313539 0.13053584
0.067752436 -0.090235338 0.13047263
0.068380557 -0.090235338 0.13047263
0.069034405 -0.090157107 0.13040942
0.069662757 -0.090157107 0.13040942
0.070291109 -0.090157107 0.13040942
0.070919462 -0.090157107 0.13040942
0.071521141 -0.090235338 0.13047263
0.072149262 -0.090235338 0.13047263
0.072750241 -0.090313539 0.13053584
0.073350765 -0.090391725 0.13059902
0.066421822 -0.090913609 0.1302186
0.067074262 -0.090835541 0.13015521
0.067701921 -0.090835541 0.13015521
0.068329573 -0.090835541 0.13015521
0.068982944 -0.090757519 0.13009186
0.069636784 -0.090679482 0.13002849
0.070264906 -0.090679482 0.13002849
0.070893019 -0.090679482 0.13002849
0.071494475 -0.090757519 0.13009186
0.072122365 -0.090757519 0.13009186
0.072723113 -0.090835541 0.13015521
0.073350765 -0.090835541 0.13015521
0.073950805 -0.090913609 0.1302186
0.065745287 -0.091513023 0.12990203
0.066397026 -0.091435134 0.12983848
0.067049235 -0.091357261 0.12977494
0.067676648 -0.091357261 0.12977494
0.068304069 -0.091357261 0.12977494
0.068957217 -0.091279358 0.12971139
0.069610827 -0.091201499 0.12964788
0.070238717 -0.091201499 0.12964788
0.070866592 -0.091201499 0.12964788
0.071494475 -0.091201499 0.12964788
0.072095469 -0.091279358 0.12971139
0.072695971 -0.091357261 0.12977494
0.073323391 -0.091357261 0.12977494
0.073950805 -0.091357261 0.12977494
0.074550383 -0.091435134 0.12983848
0.06572073 -0.092034042 0.12952241
0.066347443 -0.092034042 0.12952241
0.067024209 -0.091878608 0.12939501
0.067651391 -0.091878608 0.12939501
0.068278573 -0.091878608 0.12939501
0.068931475 -0.091800898 0.12933129
0.069584869 -0.091723174 0.12926759
0.070212521 -0.091723174 0.12926759
0.070866592 -0.091645479 0.1292039
0.071467817 -0.091723174 0.12926759
0.072095469 -0.091723174 0.12926759
0.072695971 -0.091800898 0.12933129
0.073323391 -0.091800898 0.12933129
0.073923208 -0.091878608 0.12939501
0.07452254 -0.091956347 0.12945871
0.06572073 -0.092477202 0.12907927
0.066347443 -0.092477202 0.12907927
0.066999175 -0.092399657 0.1290154
0.067626126 -0.092399657 0.1290154
0.068253078 -0.092399657 0.1290154
0.068931475 -0.092244551 0.12888765
0.069584869 -0.09216699 0.12882377
0.070212521 -0.09216699 0.12882377
0.070840165 -0.09216699 0.12882377
0.071467817 -0.09216699 0.12882377
0.072068557 -0.092244551 0.12888765
0.072695971 -0.092244551 0.12888765
0.073296025 -0.092322096 0.12895152
0.073923208 -0.092322096 0.12895152
0.07452254 -0.092399657 0.1290154
0.066372231 -0.092842981 0.12857208
0.066999175 -0.092842981 0.12857208
0.067651391 -0.092765585 0.12850803
0.068278573 -0.092765585 0.12850803
0.068905748 -0.092765585 0.12850803
0.069584869 -0.092610806 0.12837996
0.070238717 -0.092533439 0.12831593
0.070840165 -0.092610806 0.12837996
0.071494475 -0.092533439 0.12831593
0.072068557 -0.092688203 0.128444
0.072695971 -0.092688203 0.128444
0.073323391 -0.092688203 0.128444
0.073950805 -0.092688203 0.128444
0.074550383 -0.092765585 0.12850803
0.066974156 -0.093363509 0.12819296
0.067651391 -0.093209058 0.12806454
0.068253078 -0.093286291 0.12812877
0.068931475 -0.093131855 0.12800035
0.069558896 -0.093131855 0.12800035
0.070291109 -0.092822984 0.12774354
0.070919462 -0.092822984 0.12774354
0.071547814 -0.092822984 0.12774354
0.072149262 -0.092900217 0.12780775
0.072695971 -0.093131855 0.12800035
0.073378131 -0.092977419 0.12787196
0.073950805 -0.093131855 0.12800035
0.066974156 -0.093806654 0.1277498
0.067626126 -0.093729615 0.12768544
0.068253078 -0.093729615 0.12768544
0.068931475 -0.093575507 0.1275567
0.069610827 -0.0934214 0.12742797
0.070264906 -0.093344361 0.12736361
0.070972323 -0.093113184 0.12717049
0.071547814 -0.093267292 0.12729923
0.072176166 -0.093267292 0.12729923
0.072750241 -0.0934214 0.12742797
0.073350765 -0.093498439 0.12749232
0.073950805 -0.093575507 0.1275567
0.067701921 -0.093942255 0.12704851
0.068457045 -0.093557835 0.12672584
0.069137327 -0.093404055 0.12659676
0.069766618 -0.093404055 0.12659676
0.070422105 -0.09332718 0.12653224
0.07105162 -0.09332718 0.12653224
0.071681149 -0.09332718 0.12653224
0.072256871 -0.093480945 0.12666132
0.072831646 -0.093634725 0.12679039
0.07343287 -0.093711615 0.12685493
0.067878753 -0.093849018 0.1261518
0.068661012 -0.093388706 0.12576361
0.069368899 -0.093158528 0.12556949
0.070000298 -0.093158528 0.12556949
0.070657894 -0.093081817 0.12550482
0.071289517 -0.093081817 0.12550482
0.071867816 -0.093235269 0.12563421
0.072445177 -0.093388706 0.12576361
0.072967328 -0.093695566 0.1260224
0.073542349 -0.093849018 0.1261518
0.070597477 -0.091844201 0.12363113
0.071234263 -0.091844201 0.12363113
0.071765311 -0.092150435 0.12389061
0.072214492 -0.092686325 0.12434466
0.070216276 -0.090532973 0.11999264
0.070835523 -0.090609014 0.120058
0.071480274 -0.090609014 0.120058
0.072716892 -0.09076114 0.12018874
0.073334508 -0.090837181 0.12025408
0.069773391 -0.090381876 0.11901236
0.070369251 -0.090533674 0.11914341
0.070989907 -0.090609565 0.11920892
0.071584128 -0.090761334 0.11933997
0.072203614 -0.09083724 0.11940552
0.072796188 -0.090989038 0.11953658
0.073494509 -0.09083724 0.11940552
0.069376811 -0.09008202 0.11789802
0.069924966 -0.090384901 0.1181608
0.070471242 -0.090687811 0.11842357
0.071118556 -0.090687811 0.11842357
0.071765885 -0.090687811 0.11842357
0.072360806 -0.090839282 0.11855495
0.073007658 -0.090839282 0.11855495
0.07365451 -0.090839282 0.11855495
0.074301369 -0.090839282 0.11855495
0.068950757 -0.089861006 0.11684625
0.069526978 -0.090087667 0.11704382
0.070101798 -0.090314358 0.1172414
0.070675202 -0.090541065 0.11743897
0.071298666 -0.090616614 0.11750482
0.071921661 -0.090692177 0.1175707
0.072518006 -0.09084329 0.11770241
0.073139817 -0.090918869 0.11776827
0.073787846 -0.090918869 0.11776827
0.068495929 -0.089718357 0.1158575
0.069049932 -0.090019941 0.11612161
0.069602057 -0.090321541 0.11638571
0.070202842 -0.090472341 0.11651775
0.070802689 -0.090623111 0.11664979
0.071427315 -0.09069851 0.11671583
0.072051495 -0.09077391 0.11678185
0.072648995 -0.090924695 0.11691388
0.073271982 -0.09100011 0.11697993
0.073921181 -0.09100011 0.11697993
0.074597284 -0.090924695 0.11691388
0.069149107 -0.090180218 0.11539564
0.069752224 -0.090330675 0.11552802
0.070329152 -0.090556368 0.11572659
0.070930168 -0.09070684 0.11585897
0.071530238 -0.090857297 0.11599134
0.072155342 -0.090932548 0.11605754
0.072779991 -0.091007754 0.11612374
0.073430583 -0.091007754 0.11612374
0.074054524 -0.09108299 0.11618991
0.074704893 -0.09108299 0.11618991
0.068716966 -0.089966491 0.11433658
0.069297872 -0.090191677 0.11453563
0.069902398 -0.090341821 0.11466834
0.070455462 -0.090642095 0.11493376
0.071083143 -0.090717167 0.11500014
0.071684629 -0.090867266 0.11513284
0.072311133 -0.090942353 0.11519919
0.072884783 -0.091167539 0.11539826
0.073509879 -0.091242626 0.11546463
0.074161187 -0.091242626 0.11546463
0.074812494 -0.091242626 0.11546463
0.068426557 -0.089306369 0.1128754
0.069421835 -0.090280041 0.11374018
0.070002504 -0.090504766 0.11393975
0.070607036 -0.090654537 0.11407277
0.07121063 -0.090804338 0.11420581
0.071787544 -0.091029063 0.11440539
0.072389022 -0.091178864 0.11453845
0.073015779 -0.091253743 0.11460495
0.073615611 -0.091403559 0.11473799
0.07429453 -0.091328636 0.11467147
0.069545805 -0.090370074 0.11294305
0.070127644 -0.090594262 0.1131431
0.070758604 -0.090669006 0.1132098
0.07133811 -0.090893209 0.11340986
0.0719162 -0.091117397 0.11360991
0.072518855 -0.09126687 0.11374329
0.073146768 -0.091341615 0.11380999
0.073721342 -0.091565818 0.11401004
0.074374527 -0.091565818 0.11401004
0.068105035 -0.089194059 0.11100776
0.06859684 -0.089716047 0.11147574
0.069109917 -0.090163469 0.11187686
0.069669768 -0.090461731 0.11214426
0.07027781 -0.090610877 0.11227798
0.070884913 -0.090760022 0.11241169
0.071440093 -0.091058284 0.11267908
0.072044849 -0.09120743 0.11281279
0.072648674 -0.091356561 0.11294651
0.07325156 -0.091505706 0.1130802
0.073853508 -0.091654837 0.11321391
0.068201393 -0.089364618 0.11027156
0.06869413 -0.089885443 0.11074068
0.069257274 -0.090183049 0.11100873
0.069768943 -0.090629473 0.11141086
0.070377916 -0.090778291 0.11154489
0.07101123 -0.090852663 0.1116119
0.071542069 -0.0912247 0.11194701
0.072173499 -0.091299102 0.11201403
0.072778493 -0.09144792 0.11214805
0.073382556 -0.091596708 0.1122821
0.074012108 -0.091671109 0.11234911
0.068864405 -0.089833438 0.10980272
0.069380067 -0.090278864 0.11020581
0.069917709 -0.090650052 0.11054173
0.070503056 -0.090872765 0.1107433
0.07108701 -0.091095477 0.11094485
0.071695052 -0.091243953 0.11107922
0.072302148 -0.091392428 0.11121358
0.07290832 -0.091540903 0.11134796
0.073487349 -0.091763616 0.11154951
0.069010362 -0.089857832 0.10892981
0.069551982 -0.090228185 0.10926655
0.070091262 -0.090598539 0.10960329
0.070653223 -0.090894833 0.1098727
0.071238585 -0.091117054 0.11007473
0.071848027 -0.091265187 0.11020944
0.072456531 -0.091413334 0.11034414
0.073038138 -0.09163557 0.1105462
0.073644549 -0.091783687 0.11068088
0.068562753 -0.089662492 0.10785235
0.069156311 -0.089884207 0.10805489
0.06969934 -0.090253726 0.10839248
0.070264816 -0.09054935 0.10866253
0.070878476 -0.090697169 0.10879757
0.071440674 -0.090992808 0.10906763
0.072051995 -0.091140628 0.10920265
0.072662368 -0.091288432 0.10933769
0.07319393 -0.091657966 0.10967527
0.069277935 -0.089986309 0.10724568
0.069895811 -0.090133786 0.10738105
0.07043837 -0.090502486 0.10771945
0.071078695 -0.090576246 0.10778713
0.071617506 -0.090944946 0.10812555
0.072255969 -0.091018677 0.1081932
0.072868221 -0.091166154 0.10832858
0.068230227 -0.089575052 0.10595991
0.068851843 -0.089722201 0.10609561
0.069472544 -0.089869335 0.10623127
0.070067726 -0.090090081 0.10643482
0.070661515 -0.090310797 0.10663836
0.071253896 -0.090531513 0.10684189
0.071844868 -0.090752259 0.10704544
0.072485432 -0.090825826 0.10711327
0.073074058 -0.091046557 0.10731682
0.073713221 -0.091120124 0.10738467
0.068325654 -0.089755028 0.10521422
0.068972304 -0.089828432 0.10528223
0.069618486 -0.08990185 0.10535026
0.070190519 -0.090195507 0.10562231
0.070835069 -0.09026891 0.1056903
0.071429089 -0.090489119 0.10589434
0.072046965 -0.09063594 0.10603037
0.072689399 -0.090709358 0.1060984
0.067820273 -0.089716613 0.10426269
0.068444937 -0.089863107 0.10439906
0.069092758 -0.089936346 0.10446723
0.06971579 -0.090082839 0.10460359
0.070362441 -0.090156063 0.10467175
0.070983827 -0.090302557 0.10480811
0.071629301 -0.090375811 0.10487629
0.072249055 -0.090522304 0.10501266
0.072918862 -0.090522304 0.10501266
0.073537201 -0.090668797 0.10514902
0.068564221 -0.089972809 0.1035822
0.069237307 -0.089972809 0.1035822
0.06986174 -0.09011896 0.10371891
0.070485234 -0.090265125 0.10385559
0.071182176 -0.09019205 0.10378726
0.071804494 -0.090338215 0.10392395
0.072476409 -0.090338215 0.10392395
0.073122837 -0.090411291 0.10399228
0.073743045 -0.090557456 0.10412897
0.067985624 -0.090157107 0.10283226
0.068635792 -0.090230018 0.10290076
0.069333665 -0.090157107 0.10283226
0.069983363 -0.090230018 0.10290076
0.070632592 -0.090302944 0.10296927
0.071306139 -0.090302944 0.10296927
0.071979687 -0.090302944 0.10296927
0.072653241 -0.090302944 0.10296927
0.073301308 -0.090375856 0.10303777
0.073974617 -0.090375856 0.10303777
0.068778932 -0.090269968 0.10201228
0.069454126 -0.090269968 0.10201228
0.070104994 -0.09034273 0.10208096
0.070779949 -0.09034273 0.10208096
0.071454905 -0.09034273 0.10208096
0.072129861 -0.09034273 0.10208096
0.072804816 -0.09034273 0.10208096
0.073454283 -0.090415463 0.10214961
0.074129 -0.090415463 0.10214961
0.068898216 -0.090384498 0.10119063
0.06957458 -0.090384498 0.10119063
0.070250943 -0.090384498 0.10119063
0.070927307 -0.090384498 0.10119063
0.071603663 -0.090384498 0.10119063
0.072254993 -0.090457097 0.10125948
0.072931126 -0.090457097 0.10125948
0.073581763 -0.090529665 0.10132831
0.074283384 -0.090457097 0.10125948
0.068363585 -0.090428278 0.10029835
0.0690175 -0.090500683 0.10036735
0.069695033 -0.090500683 0.10036735
0.070372567 -0.090500683 0.10036735
0.0710501 -0.090500683 0.10036735
0.071727633 -0.090500683 0.10036735
0.072405167 -0.090500683 0.10036735
0.073057435 -0.090573102 0.10043637
0.073734738 -0.090573102 0.10043637
0.074412033 -0.090573102 0.10043637
0.068481706 -0.090546265 0.099473238
0.069136783 -0.090618521 0.099542424
0.069839582 -0.090546265 0.099473238
0.070518523 -0.090546265 0.099473238
0.071172893 -0.090618521 0.099542424
0.071826808 -0.090690777 0.099611565
0.07250528 -0.090690777 0.099611565
0.073183753 -0.090690777 0.099611565
0.073862225 -0.090690777 0.099611565
0.067919701 -0.090665936 0.098646462
0.068576187 -0.090738028 0.098715812
0.069232211 -0.09081009 0.098785147
0.06993594 -0.090738028 0.098715812
0.070591494 -0.09081009 0.098785147
0.071271136 -0.09081009 0.098785147
0.071950771 -0.09081009 0.098785147
0.07258036 -0.090954274 0.098923817
0.073259532 -0.090954274 0.098923817
0.073938712 -0.090954274 0.098923817
0.074617878 -0.090954274 0.098923817
0.069375351 -0.09085916 0.097887546
0.070032306 -0.090931088 0.09795706
0.070713118 -0.090931088 0.09795706
0.071393929 -0.090931088 0.09795706
0.072074741 -0.090931088 0.09795706
0.072705492 -0.091074929 0.098096073
0.073385842 -0.091074929 0.098096073
0.074066184 -0.091074929 0.098096073
0.074797988 -0.090931088 0.09795706
0.068130195 -0.090981975 0.097057641
0.068812415 -0.090981975 0.097057641
0.069494635 -0.090981975 0.097057641
0.070176847 -0.090981975 0.097057641
0.070859075 -0.090981975 0.097057641
0.071541287 -0.090981975 0.097057641
0.072223507 -0.090981975 0.097057641
0.072880685 -0.091053739 0.097127318
0.073562674 -0.091053739 0.097127318
0.074244663 -0.091053739 0.097127318
0.068247139 -0.09110643 0.096226066
0.068954147 -0.091034859 0.096156254
0.069661632 -0.090963259 0.096086398
0.070321389 -0.091034859 0.096156254
0.071005017 -0.091034859 0.096156254
0.07166408 -0.09110643 0.096226066
0.07234747 -0.09110643 0.096226066
0.073030859 -0.09110643 0.096226066
0.073688991 -0.091178015 0.096295893
0.07437215 -0.091178015 0.096295893
0.068387471 -0.091161117 0.095322847
0.069095887 -0.091089696 0.095252857
0.069780916 -0.091089696 0.095252857
0.070465937 -0.091089696 0.095252857
0.071126647 -0.091161117 0.095322847
0.07178688 -0.091232553 0.095392853
0.072471432 -0.091232553 0.095392853
0.073181026 -0.091161117 0.095322847
0.073840559 -0.091232553 0.095392853
0.074525118 -0.091232553 0.095392853
0.068527795 -0.091217816 0.094417647
0.069214001 -0.091217816 0.094417647
0.069900192 -0.091217816 0.094417647
0.070634574 -0.091075301 0.094277307
0.071272597 -0.091217816 0.094417647
0.071934238 -0.091289058 0.094487816
0.072620198 -0.091289058 0.094487816
0.073306166 -0.091289058 0.094487816
0.073966861 -0.091360331 0.094557986
0.068621352 -0.091418669 0.093651101
0.069379352 -0.091205388 0.09344013
0.070091054 -0.091134295 0.093369782
0.070755027 -0.091205388 0.09344013
0.071442872 -0.091205388 0.09344013
0.072081596 -0.091347545 0.093580768
0.072768964 -0.091347545 0.093580768
0.073456332 -0.091347545 0.093580768
0.074118435 -0.091418669 0.093651101
0.068119451 -0.091337115 0.092601255
0.068808459 -0.091337115 0.092601255
0.069544718 -0.091195285 0.092460245
0.070258051 -0.091124356 0.092389777
0.070947759 -0.091124356 0.092389777
0.071613155 -0.091195285 0.092460245
0.072278067 -0.091266215 0.092530772
0.072967306 -0.091266215 0.092530772
0.073631525 -0.091337115 0.092601255
0.07427001 -0.091478974 0.092742249
0.068258375 -0.091399774 0.091690093
0.068995565 -0.091258273 0.091548771
0.069733694 -0.091116741 0.091407448
0.070448905 -0.091045976 0.091336772
0.07114049 -0.091045976 0.091336772
0.071832076 -0.091045976 0.091336772
0.072449982 -0.091258273 0.091548771
0.07314086 -0.091258273 0.091548771
0.073806718 -0.091329008 0.091619417
0.0744721 -0.091399774 0.091690093
0.069206059 -0.091111436 0.090422809
0.069969922 -0.090899646 0.090210304
0.070663616 -0.090899646 0.090210304
0.071333215 -0.090970248 0.090281144
0.072026677 -0.090970248 0.090281144
0.072671011 -0.091111436 0.090422809
0.073339209 -0.091182038 0.090493605
0.074006937 -0.09125264 0.090564445
0.069416553 -0.090967596 0.089293852
0.070111655 -0.090967596 0.089293852
0.070806749 -0.090967596 0.089293852
0.071477763 -0.091038018 0.089364842
0.072172627 -0.091038018 0.089364842
0.072842926 -0.091108456 0.089435846
0.073537558 -0.091108456 0.089435846
0.074232183 -0.091108456 0.089435846
0.070371501 -0.090686202 0.088019595
0.071069174 -0.090686202 0.088019595
0.07171867 -0.090826735 0.088161916
0.072391555 -0.090896994 0.088233069
0.073162198 -0.090686202 0.088019595
0.073785499 -0.090896994 0.088233069
0.070678599 -0.090268269 0.086599052
0.071331598 -0.090408474 0.086741701
0.072007753 -0.090478584 0.086813033
0.072683454 -0.090548664 0.08688435
0.073383234 -0.090548664 0.08688435
0.073983841 -0.090829059 0.087169647
0.070962064 -0.089924589 0.085245684
0.071617879 -0.090064436 0.085388675
0.072272755 -0.090204298 0.085531667
0.072902381 -0.090414107 0.085746124
0.073579714 -0.090484008 0.085817605
0.071174666 -0.089794159 0.084103331
0.07180874 -0.090003446 0.08431828
0.072465487 -0.09014298 0.0844616
0.072899126 -0.089388296 0.082670689
0.073559158 -0.089527503 0.082814336
0.074267372 -0.089527503 0.082814336
0 0 0 1 0 0 0 1 0 0 0 1 0 0 0 0 0 497 1 0 0
