ply
format ascii 1.0
comment PCL generated
element vertex 529
property float x
property float y
property float z
element camera 1
property float view_px
property float view_py
property float view_pz
property float x_axisx
property float x_axisy
property float x_axisz
property float y_axisx
property float y_axisy
property float y_axisz
property float z_axisx
property float z_axisy
property float z_axisz
property float focal
property float scalex
property float scaley
property float centerx
property float centery
property int viewportx
property int viewporty
property float k1
property float k2
end_header
0.069008671 -0.088902891 0.13180508
0.069636784 -0.088902891 0.13180508
0.070264906 -0.088902891 0.13180508
0.070893019 -0.088902891 0.13180508
0.068355061 -0.089425579 0.1314238
0.068982944 -0.089425579 0.1314238
0.069610827 -0.089425579 0.1314238
0.070238717 -0.089425579 0.1314238
0.070893019 -0.089347035 0.13136092
0.071521141 -0.089347035 0.13136092
0.072095469 -0.089504093 0.13148665
0.067074262 -0.089947909 0.13104284
0.067676648 -0.090026304 0.1311059
0.068329573 -0.089947909 0.13104284
0.068982944 -0.089869559 0.13097982
0.069610827 -0.089869559 0.13097982
0.070238717 -0.089869559 0.13097982
0.070893019 -0.089791179 0.13091677
0.071494475 -0.089869559 0.13097982
0.072068557 -0.090026304 0.1311059
0.072695971 -0.090026304 0.1311059
0.067024209 -0.090548158 0.13072546
0.067701921 -0.090391725 0.13059902
0.068304069 -0.090469956 0.13066225
0.068982944 -0.090313539 0.13053584
0.069610827 -0.090313539 0.13053584
0.070238717 -0.090313539 0.13053584
0.070866592 -0.090313539 0.13053584
0.071467817 -0.090391725 0.13059902
0.072068557 -0.090469956 0.13066225
0.072668836 -0.090548158 0.13072546
0.073268652 -0.090626389 0.13078867
0.066397026 -0.090991646 0.13028197
0.067024209 -0.090991646 0.13028197
0.067651391 -0.090991646 0.13028197
0.068304069 -0.090913609 0.1302186
0.068957217 -0.090835541 0.13015521
0.069584869 -0.090835541 0.13015521
0.070212521 -0.090835541 0.13015521
0.070866592 -0.090757519 0.13009186
0.071441144 -0.090913609 0.1302186
0.072068557 -0.090913609 0.1302186
0.072668836 -0.090991646 0.13028197
0.073268652 -0.091069698 0.13034534
0.073867999 -0.091147751 0.13040872
0.06572073 -0.091590896 0.12996557
0.066372231 -0.091513023 0.12990203
0.066999175 -0.091513023 0.12990203
0.067626126 -0.091513023 0.12990203
0.068278573 -0.091435134 0.12983848
0.068931475 -0.091357261 0.12977494
0.069558896 -0.091357261 0.12977494
0.070212521 -0.091279358 0.12971139
0.070840165 -0.091279358 0.12971139
0.071441144 -0.091357261 0.12977494
0.072068557 -0.091357261 0.12977494
0.072641701 -0.091513023 0.12990203
0.073268652 -0.091513023 0.12990203
0.073867999 -0.091590896 0.12996557
0.074494705 -0.091590896 0.12996557
0.06572073 -0.092034042 0.12952241
0.066372231 -0.091956347 0.12945871
0.066999175 -0.091956347 0.12945871
0.067626126 -0.091956347 0.12945871
0.068304069 -0.091800898 0.12933129
0.068931475 -0.091800898 0.12933129
0.069558896 -0.091800898 0.12933129
0.070212521 -0.091723174 0.12926759
0.070840165 -0.091723174 0.12926759
0.071441144 -0.091800898 0.12933129
0.072041661 -0.091878608 0.12939501
0.072668836 -0.091878608 0.12939501
0.073268652 -0.091956347 0.12945871
0.073867999 -0.092034042 0.12952241
0.074494705 -0.092034042 0.12952241
0.066347443 -0.092477202 0.12907927
0.066999175 -0.092399657 0.1290154
0.067626126 -0.092399657 0.1290154
0.068278573 -0.092322096 0.12895152
0.068931475 -0.092244551 0.12888765
0.069558896 -0.092244551 0.12888765
0.070238717 -0.092089459 0.12875992
0.070866592 -0.092089459 0.12875992
0.071467817 -0.09216699 0.12882377
0.072041661 -0.092322096 0.12895152
0.072668836 -0.092322096 0.12895152
0.073296025 -0.092322096 0.12895152
0.073895596 -0.092399657 0.1290154
0.074494705 -0.092477202 0.12907927
0.066347443 -0.092920363 0.12863611
0.066999175 -0.092842981 0.12857208
0.067626126 -0.092842981 0.12857208
0.068304069 -0.092688203 0.128444
0.068957217 -0.092610806 0.12837996
0.069584869 -0.092610806 0.12837996
0.070238717 -0.092533439 0.12831593
0.070866592 -0.092533439 0.12831593
0.071494475 -0.092533439 0.12831593
0.072068557 -0.092688203 0.128444
0.072641701 -0.092842981 0.12857208
0.073268652 -0.092842981 0.12857208
0.073895596 -0.092842981 0.12857208
0.066999175 -0.093286291 0.12812877
0.067626126 -0.093286291 0.12812877
0.068278573 -0.093209058 0.12806454
0.068931475 -0.093131855 0.12800035
0.069584869 -0.093054622 0.12793614
0.070291109 -0.092822984 0.12774354
0.070945889 -0.092745766 0.12767935
0.071574479 -0.092745766 0.12767935
0.072122365 -0.092977419 0.12787196
0.072723113 -0.093054622 0.12793614
0.073296025 -0.093209058 0.12806454
0.073923208 -0.093209058 0.12806454
0.067626126 -0.093729615 0.12768544
0.068355061 -0.0934214 0.12742797
0.069008671 -0.093344361 0.12736361
0.069636784 -0.093344361 0.12736361
0.070291109 -0.093267292 0.12729923
0.070945889 -0.093190253 0.12723486
0.071601145 -0.093113184 0.12717049
0.072203062 -0.093190253 0.12723486
0.072723113 -0.093498439 0.12749232
0.073323391 -0.093575507 0.1275567
0.068559036 -0.093250275 0.12646769
0.069214515 -0.0931734 0.12640318
0.069896437 -0.09301962 0.12627411
0.070526898 -0.09301962 0.12627411
0.071183786 -0.092942744 0.12620957
0.071787819 -0.09301962 0.12627411
0.072310671 -0.09332718 0.12653224
0.072858788 -0.093557835 0.12672584
0.07343287 -0.093711615 0.12685493
0.069574736 -0.092544779 0.12505192
0.070182048 -0.092621475 0.1251166
0.070736483 -0.092851654 0.12531072
0.071342386 -0.09292838 0.1253754
0.071974486 -0.09292838 0.1253754
0.070139788 -0.09076114 0.12018874
0.070809789 -0.090685084 0.12012337
0.071428344 -0.09076114 0.12018874
0.072098814 -0.090685084 0.12012337
0.072743326 -0.090685084 0.12012337
0.073387839 -0.090685084 0.12012337
0.07413996 -0.090380847 0.11986192
0.069647081 -0.090761334 0.11933997
0.070292771 -0.090761334 0.11933997
0.070938446 -0.090761334 0.11933997
0.071610093 -0.090685472 0.11927447
0.072256014 -0.090685472 0.11927447
0.072928362 -0.090609565 0.11920892
0.073601179 -0.090533674 0.11914341
0.074274465 -0.090457782 0.11907789
0.069823913 -0.090687811 0.11842357
0.070471242 -0.090687811 0.11842357
0.071118556 -0.090687811 0.11842357
0.071765885 -0.090687811 0.11842357
0.072413206 -0.090687811 0.11842357
0.07306052 -0.090687811 0.11842357
0.07376118 -0.090536371 0.11829217
0.074543484 -0.090157717 0.11796372
0.068864316 -0.088123068 0.1153315
0.069401838 -0.090465471 0.11737311
0.070000745 -0.090616614 0.11750482
0.070649713 -0.090616614 0.11750482
0.071272932 -0.090692177 0.1175707
0.071921661 -0.090692177 0.1175707
0.072596595 -0.090616614 0.11750482
0.073219113 -0.090692177 0.1175707
0.073894516 -0.090616614 0.11750482
0.069183588 -0.08760725 0.11400881
0.069677144 -0.090095326 0.11618762
0.070228107 -0.090396911 0.11645171
0.070802689 -0.090623111 0.11664979
0.07145305 -0.090623111 0.11664979
0.072103426 -0.090623111 0.11664979
0.072727591 -0.09069851 0.11671583
0.073404156 -0.090623111 0.11664979
0.074054524 -0.090623111 0.11664979
0.074704893 -0.090623111 0.11664979
0.068621159 -0.087772831 0.11327755
0.069372252 -0.089503139 0.11479993
0.069927417 -0.089804068 0.11506468
0.070455462 -0.090180218 0.11539564
0.071032159 -0.090405911 0.11559419
0.071633168 -0.090556368 0.11572659
0.072207272 -0.090782076 0.11592516
0.072858579 -0.090782076 0.11592516
0.073483452 -0.090857297 0.11599134
0.074161187 -0.090782076 0.11592516
0.074812494 -0.090782076 0.11592516
0.068129122 -0.087714538 0.1123459
0.068669811 -0.088089854 0.11267768
0.069208153 -0.088465169 0.11300945
0.069545805 -0.089441046 0.11387208
0.070077591 -0.089816362 0.11420386
0.070632294 -0.090116635 0.11446927
0.07121063 -0.090341821 0.11466834
0.071736082 -0.090717167 0.11500014
0.072337106 -0.090867266 0.11513284
0.072963379 -0.090942353 0.11519919
0.073615611 -0.090942353 0.11519919
0.074267857 -0.090942353 0.11519919
0.074920096 -0.090942353 0.11519919
0.067538381 -0.087958157 0.11167802
0.068129122 -0.088182867 0.11187758
0.068669811 -0.088557348 0.11221018
0.069208153 -0.088931844 0.11254278
0.069669768 -0.089531049 0.11307496
0.070177697 -0.089980468 0.1134741
0.070783868 -0.09013024 0.11360712
0.071312606 -0.090504766 0.11393975
0.071890466 -0.090729445 0.1141393
0.072492883 -0.090879261 0.11427234
0.073094368 -0.091029063 0.11440539
0.073721342 -0.091103956 0.1144719
0.074347854 -0.091178864 0.11453845
0.0750008 -0.091178864 0.11453845
0.067562237 -0.088352233 0.1111425
0.068105035 -0.088725895 0.11147593
0.068669811 -0.089024842 0.11174268
0.069208153 -0.089398518 0.1120761
0.069744147 -0.08977221 0.11240956
0.070302837 -0.090071127 0.11267629
0.070884913 -0.090295345 0.11287637
0.071440093 -0.090594262 0.1131431
0.072044849 -0.090743735 0.11327648
0.072570786 -0.091117397 0.11360991
0.073225372 -0.091117397 0.11360991
0.07382708 -0.09126687 0.11374329
0.074481197 -0.09126687 0.11374329
0.067538381 -0.088895798 0.11074038
0.068080939 -0.089268655 0.11107463
0.068621159 -0.089641482 0.11140889
0.069208153 -0.089865178 0.11160944
0.069818534 -0.090014324 0.11174315
0.070377916 -0.090312615 0.11201057
0.070985958 -0.090461731 0.11214426
0.071542069 -0.090760022 0.11241169
0.072147764 -0.090909168 0.1125454
0.072726563 -0.091132864 0.11274594
0.07335636 -0.09120743 0.11281279
0.073932804 -0.091431141 0.11301337
0.074587859 -0.091431141 0.11301337
0.067538381 -0.089364618 0.11027156
0.068129122 -0.089587837 0.1104726
0.068718463 -0.089811027 0.11067365
0.069281831 -0.090108648 0.11094174
0.069892913 -0.090257466 0.11107577
0.070503056 -0.090406269 0.11120979
0.071061745 -0.09070389 0.11147788
0.071669556 -0.090852663 0.1116119
0.072302148 -0.090927079 0.11167893
0.07290832 -0.091075897 0.11181296
0.073487349 -0.091299102 0.11201403
0.074117832 -0.091373518 0.11208105
0.066946238 -0.089610711 0.10960117
0.067562237 -0.089759201 0.10973553
0.068177305 -0.089907676 0.10986991
0.068742782 -0.090204641 0.11013864
0.069355503 -0.090353101 0.11027302
0.069942497 -0.090575814 0.11047457
0.070578143 -0.090650052 0.11054173
0.071188062 -0.090798512 0.11067611
0.071797036 -0.090947002 0.11081047
0.07240507 -0.091095477 0.11094485
0.073670745 -0.091243953 0.11107922
0.074276432 -0.091392428 0.11121358
0.074934535 -0.091392428 0.11121358
0.067681521 -0.089857832 0.10892981
0.068249576 -0.090154126 0.10919921
0.068864405 -0.090302259 0.1093339
0.06950286 -0.090376332 0.10940126
0.070091262 -0.090598539 0.10960329
0.070728302 -0.090672627 0.10967065
0.07133963 -0.09082076 0.10980535
0.071975507 -0.090894833 0.1098727
0.07258518 -0.091042981 0.11000741
0.073801734 -0.091339275 0.11027679
0.074514329 -0.091191128 0.11014211
0.067776948 -0.090032011 0.10818993
0.068394125 -0.090179831 0.10832496
0.069010362 -0.09032765 0.10845999
0.069625661 -0.09047547 0.10859503
0.070264816 -0.09054935 0.10866253
0.070903495 -0.090623289 0.10873005
0.071516462 -0.090771094 0.10886508
0.072153986 -0.090844989 0.1089326
0.072765291 -0.090992808 0.10906763
0.073349714 -0.091214508 0.10927017
0.074037522 -0.091140628 0.10920265
0.068538666 -0.090207532 0.10744873
0.069180638 -0.090281278 0.10751642
0.069773018 -0.090502486 0.10771945
0.070413575 -0.090576246 0.10778713
0.071078695 -0.090576246 0.10778713
0.071718559 -0.090649977 0.10785481
0.072357953 -0.090723708 0.10792249
0.07299687 -0.090797469 0.10799018
0.07366129 -0.090797469 0.10799018
0.074325711 -0.090797469 0.10799018
0.068659119 -0.090310797 0.10663836
0.069326587 -0.090310797 0.10663836
0.069920376 -0.090531513 0.10684189
0.070587136 -0.090531513 0.10684189
0.071278915 -0.090457946 0.10677405
0.071895391 -0.090605095 0.10690975
0.072536424 -0.090678662 0.10697758
0.07317698 -0.090752259 0.10704544
0.07384304 -0.090752259 0.10704544
0.074509099 -0.090752259 0.10704544
0.067560419 -0.090048671 0.10548629
0.068182513 -0.090195507 0.10562231
0.068827756 -0.09026891 0.1056903
0.069472544 -0.090342298 0.10575831
0.070092291 -0.090489119 0.10589434
0.07076069 -0.090489119 0.10589434
0.071429089 -0.090489119 0.10589434
0.072072223 -0.090562537 0.10596237
0.072689399 -0.090709358 0.1060984
0.073382825 -0.09063594 0.10603037
0.074050762 -0.09063594 0.10603037
0.074718691 -0.09063594 0.10603037
0.06834951 -0.090156063 0.10467175
0.068996392 -0.090229318 0.10473993
0.069642819 -0.090302557 0.10480811
0.070288762 -0.090375811 0.10487629
0.070959032 -0.090375811 0.10487629
0.071629301 -0.090375811 0.10487629
0.072249055 -0.090522304 0.10501266
0.072918862 -0.090522304 0.10501266
0.073588662 -0.090522304 0.10501266
0.0743104 -0.090375811 0.10487629
0.068492651 -0.09019205 0.10378726
0.069140941 -0.090265125 0.10385559
0.069813095 -0.090265125 0.10385559
0.070460677 -0.090338215 0.10392395
0.071132585 -0.090338215 0.10392395
0.071804494 -0.090338215 0.10392395
0.072476409 -0.090338215 0.10392395
0.073122837 -0.090411291 0.10399228
0.073794506 -0.090411291 0.10399228
0.074466191 -0.090411291 0.10399228
0.068659648 -0.090157107 0.10283226
0.069333665 -0.090157107 0.10283226
0.069983363 -0.090230018 0.10290076
0.070657149 -0.090230018 0.10290076
0.071330935 -0.090230018 0.10290076
0.071979687 -0.090302944 0.10296927
0.072653241 -0.090302944 0.10296927
0.073301308 -0.090375856 0.10303777
0.073974617 -0.090375856 0.10303777
0.074647941 -0.090375856 0.10303777
0.068778932 -0.090269968 0.10201228
0.069502302 -0.090124488 0.10187493
0.07012932 -0.090269968 0.10201228
0.070804507 -0.090269968 0.10201228
0.071454905 -0.09034273 0.10208096
0.072129861 -0.09034273 0.10208096
0.072804816 -0.09034273 0.10208096
0.073454283 -0.090415463 0.10214961
0.074129 -0.090415463 0.10214961
0.074803732 -0.090415463 0.10214961
0.068245478 -0.09031193 0.10112181
0.068898216 -0.090384498 0.10119063
0.069598667 -0.09031193 0.10112181
0.070275269 -0.09031193 0.10112181
0.070927307 -0.090384498 0.10119063
0.071603663 -0.090384498 0.10119063
0.072280027 -0.090384498 0.10119063
0.072931126 -0.090457097 0.10125948
0.073607258 -0.090457097 0.10125948
0.074283384 -0.090457097 0.10125948
0.074959509 -0.090457097 0.10125948
0.068363585 -0.090428278 0.10029835
0.069041356 -0.090428278 0.10029835
0.069719121 -0.090428278 0.10029835
0.070396893 -0.090428278 0.10029835
0.071074657 -0.090428278 0.10029835
0.071752422 -0.090428278 0.10029835
0.072380133 -0.090573102 0.10043637
0.073057435 -0.090573102 0.10043637
0.073709242 -0.090645522 0.10050537
0.074386306 -0.090645522 0.10050537
0.07506337 -0.090645522 0.10050537
0.068481706 -0.090546265 0.099473238
0.069136783 -0.090618521 0.099542424
0.069839582 -0.090546265 0.099473238
0.070518523 -0.090546265 0.099473238
0.071172893 -0.090618521 0.099542424
0.071826808 -0.090690777 0.099611565
0.07250528 -0.090690777 0.099611565
0.073158488 -0.090763032 0.099680766
0.073836721 -0.090763032 0.099680766
0.074514955 -0.090763032 0.099680766
0.075193189 -0.090763032 0.099680766
0.068576187 -0.090738028 0.098715812
0.069232211 -0.09081009 0.098785147
0.06993594 -0.090738028 0.098715812
0.070615813 -0.090738028 0.098715812
0.071295694 -0.090738028 0.098715812
0.071950771 -0.09081009 0.098785147
0.07258036 -0.090954274 0.098923817
0.073259532 -0.090954274 0.098923817
0.073913217 -0.091026351 0.098993152
0.074617878 -0.090954274 0.098923817
0.075271092 -0.091026351 0.098993152
0.069351494 -0.090931088 0.09795706
0.070056401 -0.09085916 0.097887546
0.070737444 -0.09085916 0.097887546
0.071393929 -0.090931088 0.09795706
0.072074741 -0.090931088 0.09795706
0.072680473 -0.091146842 0.098165557
0.073360585 -0.091146842 0.098165557
0.074066184 -0.091074929 0.098096073
0.0747208 -0.091146842 0.098165557
0.068859667 -0.090838462 0.0969183
0.069542348 -0.090838462 0.0969183
0.07022503 -0.090838462 0.0969183
0.070883393 -0.090910226 0.096987978
0.071541287 -0.090981975 0.097057641
0.072223507 -0.090981975 0.097057641
0.072880685 -0.091053739 0.097127318
0.073512152 -0.091197252 0.097266644
0.074193664 -0.091197252 0.097266644
0.069001392 -0.090891674 0.096016586
0.069733202 -0.090748489 0.095876917
0.070417754 -0.090748489 0.095876917
0.071029343 -0.090963259 0.096086398
0.071688637 -0.091034859 0.096156254
0.072322682 -0.091178015 0.096295893
0.073030859 -0.09110643 0.096226066
0.073688991 -0.091178015 0.096295893
0.07437215 -0.091178015 0.096295893
0.069190376 -0.090804011 0.094972864
0.069876343 -0.090804011 0.094972864
0.070562303 -0.090804011 0.094972864
0.071223944 -0.090875447 0.095042869
0.071835995 -0.091089696 0.095252857
0.072496235 -0.091161117 0.095322847
0.073181026 -0.091161117 0.095322847
0.073840559 -0.091232553 0.095392853
0.074525118 -0.091232553 0.095392853
0.068714909 -0.090647757 0.09385632
0.069379352 -0.090719014 0.093926504
0.070019484 -0.090861514 0.094066799
0.070682757 -0.090932786 0.094136983
0.071345575 -0.091004029 0.094207138
0.072007909 -0.091075301 0.094277307
0.072620198 -0.091289058 0.094487816
0.073331185 -0.091217816 0.094417647
0.073992133 -0.091289058 0.094487816
0.068831846 -0.090778843 0.093018144
0.069544718 -0.090707749 0.092947781
0.070210338 -0.090778843 0.093018144
0.070875488 -0.090849921 0.093088448
0.071491517 -0.091063201 0.093299463
0.07213071 -0.091205388 0.09344013
0.07281854 -0.091205388 0.09344013
0.073506378 -0.091205388 0.09344013
0.074194223 -0.091205388 0.09344013
0.068281531 -0.090840638 0.092107788
0.068972178 -0.090840638 0.092107788
0.069733694 -0.090627879 0.09189631
0.070377328 -0.090769738 0.092037305
0.071044125 -0.090840638 0.092107788
0.071710445 -0.090911582 0.092178285
0.072302625 -0.091195285 0.092460245
0.073016897 -0.091124356 0.092389777
0.073681578 -0.091195285 0.092460245
0.074345797 -0.091266215 0.092530772
0.068443611 -0.090833694 0.091124788
0.069135897 -0.090833694 0.091124788
0.069851808 -0.090762943 0.091054142
0.070544325 -0.090762943 0.091054142
0.071236849 -0.090762943 0.091054142
0.071856402 -0.09097521 0.091266125
0.072523661 -0.091045976 0.091336772
0.073215246 -0.091045976 0.091336772
0.073881797 -0.091116741 0.091407448
0.074573152 -0.091116741 0.091407448
0.069252834 -0.090970248 0.090281144
0.069969922 -0.090899646 0.090210304
0.070663616 -0.090899646 0.090210304
0.071381398 -0.090829059 0.090139478
0.072026677 -0.090970248 0.090281144
0.072671011 -0.091111436 0.090422809
0.073364004 -0.091111436 0.090422809
0.07405699 -0.091111436 0.090422809
0.069393165 -0.091038018 0.089364842
0.070111655 -0.090967596 0.089293852
0.0707829 -0.091038018 0.089364842
0.071501851 -0.090967596 0.089293852
0.072172627 -0.091038018 0.089364842
0.07286749 -0.091038018 0.089364842
0.073537558 -0.091108456 0.089435846
0.074257217 -0.091038018 0.089364842
0.069673829 -0.090686202 0.088019595
0.070371501 -0.090686202 0.088019595
0.07102146 -0.090826735 0.088161916
0.071694583 -0.090896994 0.088233069
0.072391555 -0.090896994 0.088233069
0.073113084 -0.090826735 0.088161916
0.073785499 -0.090896994 0.088233069
0.06997788 -0.090268269 0.086599052
0.070631355 -0.090408474 0.086741701
0.071307741 -0.090478584 0.086813033
0.071983665 -0.090548664 0.08688435
0.072683454 -0.090548664 0.08688435
0.073383234 -0.090548664 0.08688435
0.074058227 -0.090618744 0.086955667
0.070258535 -0.089924589 0.085245684
0.07091482 -0.090064436 0.085388675
0.071522452 -0.090344176 0.085674644
0.072224572 -0.090344176 0.085674644
0.072902381 -0.090414107 0.085746124
0.073604271 -0.090414107 0.085746124
0.074231781 -0.090623885 0.085960582
0.070398867 -0.090003446 0.08431828
0.071174666 -0.089794159 0.084103331
0.071784876 -0.090073213 0.084389955
0.072417304 -0.090282515 0.084604919
0.073121309 -0.090282515 0.084604919
0.073800743 -0.090352282 0.084676549
0.070843242 -0.089179501 0.082455248
0.071458139 -0.089457914 0.082742527
0.072166584 -0.089457914 0.082742527
0.07280276 -0.089666709 0.082957983
0.073510505 -0.089666709 0.082957983
0 0 0 1 0 0 0 1 0 0 0 1 0 0 0 0 0 529 1 0 0
