ply
format ascii 1.0
comment PCL generated
element vertex 575
property float x
property float y
property float z
element camera 1
property float view_px
property float view_py
property float view_pz
property float x_axisx
property float x_axisy
property float x_axisz
property float y_axisx
property float y_axisy
property float y_axisz
property float z_axisx
property float z_axisy
property float z_axisz
property float focal
property float scalex
property float scaley
property float centerx
property float centery
property int viewportx
property int viewporty
property float k1
property float k2
end_header
0.069085866 -0.088666752 0.13161692
0.069714688 -0.088666752 0.13161692
0.070317306 -0.088745475 0.13167964
0.070945889 -0.088745475 0.13167964
0.071547814 -0.088824168 0.13174236
0.068431549 -0.089189947 0.13123517
0.069060132 -0.089189947 0.13123517
0.069688715 -0.089189947 0.13123517
0.070264906 -0.089347035 0.13136092
0.070893019 -0.089347035 0.13136092
0.071521141 -0.089347035 0.13136092
0.072122365 -0.089425579 0.1314238
0.072723113 -0.089504093 0.13148665
0.067752436 -0.089791179 0.13091677
0.068406053 -0.089712799 0.13085373
0.069034405 -0.089712799 0.13085373
0.069662757 -0.089712799 0.13085373
0.070264906 -0.089791179 0.13091677
0.070893019 -0.089791179 0.13091677
0.071494475 -0.089869559 0.13097982
0.072095469 -0.089947909 0.13104284
0.072695971 -0.090026304 0.1311059
0.073296025 -0.090104669 0.13116893
0.067074262 -0.090391725 0.13059902
0.067727178 -0.090313539 0.13053584
0.068355061 -0.090313539 0.13053584
0.068982944 -0.090313539 0.13053584
0.069610827 -0.090313539 0.13053584
0.070238717 -0.090313539 0.13053584
0.070866592 -0.090313539 0.13053584
0.071467817 -0.090391725 0.13059902
0.072095469 -0.090391725 0.13059902
0.072668836 -0.090548158 0.13072546
0.073268652 -0.090626389 0.13078867
0.073895596 -0.090626389 0.13078867
0.066421822 -0.090913609 0.1302186
0.067074262 -0.090835541 0.13015521
0.067676648 -0.090913609 0.1302186
0.068329573 -0.090835541 0.13015521
0.068982944 -0.090757519 0.13009186
0.069610827 -0.090757519 0.13009186
0.070186317 -0.090913609 0.1302186
0.070840165 -0.090835541 0.13015521
0.071441144 -0.090913609 0.1302186
0.072041661 -0.090991646 0.13028197
0.072668836 -0.090991646 0.13028197
0.073268652 -0.091069698 0.13034534
0.073867999 -0.091147751 0.13040872
0.074494705 -0.091147751 0.13040872
0.066397026 -0.091435134 0.12983848
0.067049235 -0.091357261 0.12977494
0.067651391 -0.091435134 0.12983848
0.068278573 -0.091435134 0.12983848
0.068957217 -0.091279358 0.12971139
0.069558896 -0.091357261 0.12977494
0.070186317 -0.091357261 0.12977494
0.070813723 -0.091357261 0.12977494
0.071467817 -0.091279358 0.12971139
0.072041661 -0.091435134 0.12983848
0.072641701 -0.091513023 0.12990203
0.073268652 -0.091513023 0.12990203
0.073895596 -0.091513023 0.12990203
0.074466862 -0.091668785 0.13002911
0.066372231 -0.091956347 0.12945871
0.066999175 -0.091956347 0.12945871
0.067651391 -0.091878608 0.12939501
0.068278573 -0.091878608 0.12939501
0.068905748 -0.091878608 0.12939501
0.069558896 -0.091800898 0.12933129
0.070186317 -0.091800898 0.12933129
0.070813723 -0.091800898 0.12933129
0.071441144 -0.091800898 0.12933129
0.072041661 -0.091878608 0.12939501
0.072641701 -0.091956347 0.12945871
0.073268652 -0.091956347 0.12945871
0.073895596 -0.091956347 0.12945871
0.074494705 -0.092034042 0.12952241
0.066372231 -0.092399657 0.1290154
0.066999175 -0.092399657 0.1290154
0.067626126 -0.092399657 0.1290154
0.068253078 -0.092399657 0.1290154
0.068931475 -0.092244551 0.12888765
0.069558896 -0.092244551 0.12888765
0.070186317 -0.092244551 0.12888765
0.070813723 -0.092244551 0.12888765
0.071441144 -0.092244551 0.12888765
0.072068557 -0.092244551 0.12888765
0.072668836 -0.092322096 0.12895152
0.073268652 -0.092399657 0.1290154
0.073895596 -0.092399657 0.1290154
0.074494705 -0.092477202 0.12907927
0.066999175 -0.092842981 0.12857208
0.067651391 -0.092765585 0.12850803
0.068278573 -0.092765585 0.12850803
0.068905748 -0.092765585 0.12850803
0.069558896 -0.092688203 0.128444
0.070186317 -0.092688203 0.128444
0.070840165 -0.092610806 0.12837996
0.071441144 -0.092688203 0.128444
0.072095469 -0.092610806 0.12837996
0.072695971 -0.092688203 0.128444
0.073296025 -0.092765585 0.12850803
0.073923208 -0.092765585 0.12850803
0.07452254 -0.092842981 0.12857208
0.066999175 -0.093286291 0.12812877
0.067651391 -0.093209058 0.12806454
0.068304069 -0.093131855 0.12800035
0.068957217 -0.093054622 0.12793614
0.069558896 -0.093131855 0.12800035
0.070238717 -0.092977419 0.12787196
0.070893019 -0.092900217 0.12780775
0.071494475 -0.092977419 0.12787196
0.072095469 -0.093054622 0.12793614
0.072723113 -0.093054622 0.12793614
0.073323391 -0.093131855 0.12800035
0.073923208 -0.093209058 0.12806454
0.067676648 -0.093575507 0.1275567
0.068329573 -0.093498439 0.12749232
0.068957217 -0.093498439 0.12749232
0.069610827 -0.0934214 0.12742797
0.070238717 -0.0934214 0.12742797
0.070893019 -0.093344361 0.12736361
0.071547814 -0.093267292 0.12729923
0.072122365 -0.0934214 0.12742797
0.072777376 -0.093344361 0.12736361
0.073350765 -0.093498439 0.12749232
0.073950805 -0.093575507 0.1275567
0.068431549 -0.093634725 0.12679039
0.069137327 -0.093404055 0.12659676
0.069714688 -0.093557835 0.12672584
0.070343509 -0.093557835 0.12672584
0.071025193 -0.093404055 0.12659676
0.071627811 -0.093480945 0.12666132
0.072203062 -0.093634725 0.12679039
0.072804518 -0.093711615 0.12685493
0.073378131 -0.093865395 0.126984
0.068737507 -0.093158528 0.12556949
0.069214515 -0.09361887 0.12595771
0.069974326 -0.093235269 0.12563421
0.070605494 -0.093235269 0.12563421
0.071236648 -0.093235269 0.12563421
0.071867816 -0.093235269 0.12563421
0.07241828 -0.093465418 0.12582831
0.073542349 -0.093849018 0.1261518
0.069703385 -0.092609778 0.1242798
0.070259936 -0.09283945 0.12447439
0.070946075 -0.092686325 0.12434466
0.071500987 -0.092915997 0.12453926
0.072214492 -0.092686325 0.12434466
0.069773391 -0.090381876 0.11901236
0.070369251 -0.090533674 0.11914341
0.071092822 -0.090305999 0.11894682
0.071687981 -0.090457782 0.11907789
0.072282217 -0.090609565 0.11920892
0.072928362 -0.090609565 0.11920892
0.073574513 -0.090609565 0.11920892
0.07002601 -0.09008202 0.11789802
0.070573226 -0.090384901 0.1181608
0.071195744 -0.090460643 0.1182265
0.071765885 -0.090687811 0.11842357
0.072387002 -0.090763554 0.11848927
0.072981216 -0.090915009 0.11862066
0.073627844 -0.090915009 0.11862066
0.069149107 -0.089256495 0.11631936
0.069727205 -0.089483172 0.11651693
0.07027863 -0.089785427 0.11678039
0.070751697 -0.090314358 0.1172414
0.071324393 -0.090541065 0.11743897
0.071947634 -0.090616614 0.11750482
0.072570391 -0.090692177 0.1175707
0.073192686 -0.090767741 0.11763655
0.073814519 -0.09084329 0.11770241
0.068716966 -0.089039788 0.11526328
0.069248281 -0.089416757 0.1155934
0.069802284 -0.089718357 0.1158575
0.070379682 -0.089944541 0.11605556
0.070930168 -0.090246126 0.11631969
0.071504503 -0.090472341 0.11651775
0.072103426 -0.090623111 0.11664979
0.072727591 -0.09069851 0.11671583
0.073351286 -0.09077391 0.11678185
0.073947854 -0.090924695 0.11691388
0.074597284 -0.090924695 0.11691388
0.068815202 -0.08920221 0.11453515
0.069297872 -0.089728817 0.11499849
0.069877364 -0.089954525 0.11519708
0.070455462 -0.090180218 0.11539564
0.071032159 -0.090405911 0.11559419
0.071633168 -0.090556368 0.11572659
0.072233245 -0.09070684 0.11585897
0.072832383 -0.090857297 0.11599134
0.073430583 -0.091007754 0.11612374
0.07473179 -0.091007754 0.11612374
0.068256281 -0.089365974 0.11380574
0.06888888 -0.089441046 0.11387208
0.069421835 -0.089816362 0.11420386
0.070002504 -0.090041578 0.11440293
0.070581771 -0.090266749 0.114602
0.071185127 -0.090416893 0.11473471
0.071761817 -0.090642095 0.11493376
0.072363064 -0.090792209 0.11506648
0.072963379 -0.090942353 0.11519919
0.073589183 -0.09101741 0.11526555
0.07418786 -0.091167539 0.11539826
0.074839398 -0.091167539 0.11539826
0.067840032 -0.089081645 0.11267583
0.068402231 -0.089381263 0.11294192
0.068962559 -0.089680851 0.113208
0.069521002 -0.089980468 0.1134741
0.070127644 -0.09013024 0.11360712
0.070682824 -0.090429857 0.11387321
0.071287118 -0.090579659 0.11400625
0.071890466 -0.090729445 0.1141393
0.072492883 -0.090879261 0.11427234
0.073068172 -0.091103956 0.1144719
0.073694907 -0.091178864 0.11453845
0.074321188 -0.091253743 0.11460495
0.067912303 -0.089323789 0.11200944
0.068499535 -0.089547992 0.11220948
0.069060795 -0.089846939 0.11247624
0.06964498 -0.090071127 0.11267629
0.07022775 -0.090295345 0.11287637
0.070834383 -0.090444818 0.11300975
0.071440093 -0.090594262 0.1131431
0.071993388 -0.090893209 0.11340986
0.072596744 -0.091042683 0.11354323
0.073225372 -0.091117397 0.11360991
0.073853508 -0.091192141 0.11367661
0.068008669 -0.089492351 0.11127518
0.06859684 -0.089716047 0.11147574
0.069109917 -0.090163469 0.11187686
0.069719359 -0.090312615 0.11201057
0.070327863 -0.090461731 0.11214426
0.070960701 -0.090536296 0.11221112
0.071516581 -0.090834588 0.11247854
0.072147764 -0.090909168 0.1125454
0.072752535 -0.091058284 0.11267908
0.07335636 -0.09120743 0.11281279
0.074012108 -0.09120743 0.11281279
0.068080939 -0.08973664 0.11060664
0.06869413 -0.089885443 0.11074068
0.06923271 -0.090257466 0.11107577
0.069843322 -0.090406269 0.11120979
0.070427977 -0.090629473 0.11141086
0.071061745 -0.09070389 0.11147788
0.071669556 -0.090852663 0.1116119
0.072276421 -0.091001481 0.11174594
0.072830424 -0.091299102 0.11201403
0.073461153 -0.091373518 0.11208105
0.074117832 -0.091373518 0.11208105
0.068201393 -0.089833438 0.10980272
0.068767115 -0.090130374 0.11007145
0.069355503 -0.090353101 0.11027302
0.069942497 -0.090575814 0.11047457
0.070578143 -0.090650052 0.11054173
0.07121332 -0.090724304 0.11060894
0.071822532 -0.090872765 0.1107433
0.07240507 -0.091095477 0.11094485
0.073038138 -0.09116973 0.11101204
0.073618345 -0.091392428 0.11121358
0.068345942 -0.089857832 0.10892981
0.068913057 -0.090154126 0.10919921
0.069527417 -0.090302259 0.1093339
0.070091262 -0.090598539 0.10960329
0.070753336 -0.090598539 0.10960329
0.071364895 -0.090746686 0.10973799
0.071975507 -0.090894833 0.1098727
0.07258518 -0.091042981 0.11000741
0.073219895 -0.091117054 0.11007473
0.073854133 -0.091191128 0.11014211
0.069083333 -0.090105921 0.10825744
0.06969934 -0.090253726 0.10839248
0.070264816 -0.09054935 0.10866253
0.070928529 -0.09054935 0.10866253
0.071541727 -0.090697169 0.10879757
0.072153986 -0.090844989 0.1089326
0.072765291 -0.090992808 0.10906763
0.07337568 -0.091140628 0.10920265
0.074037522 -0.091140628 0.10920265
0.068610936 -0.089986309 0.10724568
0.069229282 -0.090133786 0.10738105
0.069871254 -0.090207532 0.10744873
0.070487961 -0.090355009 0.10758407
0.071103722 -0.090502486 0.10771945
0.071718559 -0.090649977 0.10785481
0.072332457 -0.090797469 0.10799018
0.072945409 -0.090944946 0.10812555
0.073583394 -0.091018677 0.1081932
0.06820637 -0.089648619 0.10602775
0.068827756 -0.089795783 0.10616343
0.069399558 -0.090090081 0.10643482
0.070043169 -0.090163648 0.10650267
0.070661515 -0.090310797 0.10663836
0.071253896 -0.090531513 0.10684189
0.071870133 -0.090678662 0.10697758
0.072510928 -0.090752259 0.10704544
0.073151253 -0.090825826 0.10711327
0.07384304 -0.090752259 0.10704544
0.067702159 -0.089608222 0.10507821
0.068325654 -0.089755028 0.10521422
0.068948209 -0.08990185 0.10535026
0.069545515 -0.090122074 0.10555428
0.070190519 -0.090195507 0.10562231
0.070835069 -0.09026891 0.1056903
0.071429089 -0.090489119 0.10589434
0.072046965 -0.09063594 0.10603037
0.072689399 -0.090709358 0.1060984
0.073331363 -0.090782762 0.10616638
0.067820273 -0.089716613 0.10426269
0.068444937 -0.089863107 0.10439906
0.069044575 -0.090082839 0.10460359
0.069691464 -0.090156063 0.10467175
0.070362441 -0.090156063 0.10467175
0.070983827 -0.090302557 0.10480811
0.071579248 -0.090522304 0.10501266
0.072223797 -0.090595543 0.10508083
0.072893374 -0.090595543 0.10508083
0.073537201 -0.090668797 0.10514902
0.074180581 -0.090742037 0.10521717
0.06793838 -0.089826673 0.10344554
0.068564221 -0.089972809 0.1035822
0.069189124 -0.09011896 0.10371891
0.069837414 -0.09019205 0.10378726
0.070485234 -0.090265125 0.10385559
0.071157381 -0.090265125 0.10385559
0.071779475 -0.090411291 0.10399228
0.07240063 -0.090557456 0.10412897
0.073071845 -0.090557456 0.10412897
0.073717318 -0.090630502 0.10419729
0.068032876 -0.090011299 0.10269523
0.068707362 -0.090011299 0.10269523
0.069309577 -0.090230018 0.10290076
0.070007689 -0.090157107 0.10283226
0.070657149 -0.090230018 0.10290076
0.071306139 -0.090302944 0.10296927
0.071954668 -0.090375856 0.10303777
0.072602727 -0.090448752 0.10310628
0.073301308 -0.090375856 0.10303777
0.07394889 -0.090448752 0.10310628
0.067522101 -0.089979008 0.10173757
0.068174608 -0.090051726 0.10180625
0.068850502 -0.090051726 0.10180625
0.069454126 -0.090269968 0.10201228
0.07012932 -0.090269968 0.10201228
0.070804507 -0.090269968 0.10201228
0.071454905 -0.09034273 0.10208096
0.072129861 -0.09034273 0.10208096
0.072779559 -0.090415463 0.10214961
0.073454283 -0.090415463 0.10214961
0.074129 -0.090415463 0.10214961
0.067639038 -0.090094179 0.1009153
0.06831634 -0.090094179 0.1009153
0.068969786 -0.090166762 0.10098413
0.069598667 -0.09031193 0.10112181
0.070275269 -0.09031193 0.10112181
0.070951864 -0.09031193 0.10112181
0.071603663 -0.090384498 0.10119063
0.072280027 -0.090384498 0.10119063
0.072956391 -0.090384498 0.10119063
0.073607258 -0.090457097 0.10125948
0.074283384 -0.090457097 0.10125948
0.066467807 -0.089993775 0.099884316
0.067123823 -0.09006618 0.099953324
0.06777937 -0.090138614 0.10002233
0.068434462 -0.090211019 0.10009132
0.06908907 -0.090283453 0.10016035
0.069719121 -0.090428278 0.10029835
0.070396893 -0.090428278 0.10029835
0.071074657 -0.090428278 0.10029835
0.071727633 -0.090500683 0.10036735
0.072405167 -0.090500683 0.10036735
0.0730827 -0.090500683 0.10036735
0.073734738 -0.090573102 0.10043637
0.074437767 -0.090500683 0.10036735
0.065970115 -0.089896008 0.098850697
0.066582404 -0.090112776 0.099058226
0.067216434 -0.090257287 0.099196553
0.067896314 -0.090257287 0.099196553
0.068552569 -0.090329513 0.099265724
0.069184497 -0.090474024 0.099404067
0.06986367 -0.090474024 0.099404067
0.070518523 -0.090546265 0.099473238
0.071197458 -0.090546265 0.099473238
0.071851596 -0.090618521 0.099542424
0.072530299 -0.090618521 0.099542424
0.073183753 -0.090690777 0.099611565
0.073862225 -0.090690777 0.099611565
0.07454069 -0.090690777 0.099611565
0.066083543 -0.09001717 0.098022446
0.066674083 -0.090305507 0.098299786
0.067355365 -0.090305507 0.098299786
0.067989863 -0.090449676 0.098438472
0.068623438 -0.09059386 0.098577142
0.069279924 -0.090665936 0.098646462
0.069960035 -0.090665936 0.098646462
0.070640147 -0.090665936 0.098646462
0.071320251 -0.090665936 0.098646462
0.071975566 -0.090738028 0.098715812
0.072655439 -0.090738028 0.098715812
0.073310055 -0.09081009 0.098785147
0.073938712 -0.090954274 0.098923817
0.074669339 -0.09081009 0.098785147
0.065513588 -0.09013997 0.097192526
0.066128917 -0.090355724 0.097401038
0.066788681 -0.090427652 0.097470552
0.067424826 -0.090571493 0.097609565
0.068106808 -0.090571493 0.097609565
0.068741545 -0.090715349 0.097748548
0.069399208 -0.090787247 0.097818047
0.070080489 -0.090787247 0.097818047
0.07076177 -0.090787247 0.097818047
0.071467601 -0.090715349 0.097748548
0.072099537 -0.09085916 0.097887546
0.072780579 -0.09085916 0.097887546
0.073436365 -0.090931088 0.09795706
0.074066184 -0.091074929 0.098096073
0.074797988 -0.090931088 0.09795706
0.065648295 -0.090192676 0.096291289
0.066310398 -0.09026444 0.096360967
0.066926204 -0.090479702 0.096569955
0.067586899 -0.090551466 0.096639648
0.068270527 -0.090551466 0.096639648
0.068930529 -0.0906232 0.096709296
0.069590062 -0.090694949 0.096778959
0.07022503 -0.090838462 0.0969183
0.070956372 -0.090694949 0.096778959
0.071639523 -0.090694949 0.096778959
0.072248295 -0.090910226 0.096987978
0.072930746 -0.090910226 0.096987978
0.073613197 -0.090910226 0.096987978
0.074270159 -0.090981975 0.097057641
0.074952371 -0.090981975 0.097057641
0.065783001 -0.090247378 0.095388085
0.06644652 -0.090318963 0.095457911
0.067109562 -0.090390563 0.095527753
0.06772583 -0.090605319 0.095737234
0.068387471 -0.090676889 0.095807076
0.069048643 -0.090748489 0.095876917
0.069733202 -0.090748489 0.095876917
0.070417754 -0.090748489 0.095876917
0.071053669 -0.090891674 0.096016586
0.071737759 -0.090891674 0.096016586
0.072372258 -0.091034859 0.096156254
0.073055878 -0.091034859 0.096156254
0.073739506 -0.091034859 0.096156254
0.074423134 -0.091034859 0.096156254
0.065274544 -0.090161204 0.094342873
0.065895267 -0.090375468 0.094552845
0.066559941 -0.090446904 0.094622865
0.067201242 -0.090589747 0.094762862
0.067841597 -0.090732604 0.094902858
0.068527795 -0.090732604 0.094902858
0.069190376 -0.090804011 0.094972864
0.069876343 -0.090804011 0.094972864
0.070562303 -0.090804011 0.094972864
0.0711753 -0.091018274 0.095182836
0.071860559 -0.091018274 0.095182836
0.072521023 -0.091089696 0.095252857
0.073206052 -0.091089696 0.095252857
0.073865823 -0.091161117 0.095322847
0.074550621 -0.091161117 0.095322847
0.065296754 -0.0905765 0.093786165
0.06596262 -0.090647757 0.09385632
0.066628002 -0.090719014 0.093926504
0.067338765 -0.090647757 0.09385632
0.068003677 -0.090719014 0.093926504
0.06864474 -0.090861514 0.094066799
0.06930849 -0.090932786 0.094136983
0.069995627 -0.090932786 0.094136983
0.070682757 -0.090932786 0.094136983
0.071321249 -0.091075301 0.094277307
0.072007909 -0.091075301 0.094277307
0.072694577 -0.091075301 0.094277307
0.073331185 -0.091217816 0.094417647
0.074017391 -0.091217816 0.094417647
0.074703589 -0.091217816 0.094417647
0.065385625 -0.090778843 0.093018144
0.066052422 -0.090849921 0.093088448
0.066741429 -0.090849921 0.093088448
0.067384608 -0.090992108 0.093229115
0.068119451 -0.090849921 0.093088448
0.068761684 -0.090992108 0.093229115
0.069450229 -0.090992108 0.093229115
0.070186481 -0.090849921 0.093088448
0.070827305 -0.090992108 0.093229115
0.071491517 -0.091063201 0.093299463
0.072179824 -0.091063201 0.093299463
0.072843343 -0.091134295 0.093369782
0.073531412 -0.091134295 0.093369782
0.074219488 -0.091134295 0.093369782
0.066119775 -0.091124356 0.092389777
0.066854857 -0.090982497 0.092248783
0.067545041 -0.090982497 0.092248783
0.068235219 -0.090982497 0.092248783
0.068948783 -0.090911582 0.092178285
0.069662832 -0.090840638 0.092107788
0.070353478 -0.090840638 0.092107788
0.071044125 -0.090840638 0.092107788
0.071710445 -0.090911582 0.092178285
0.072327182 -0.091124356 0.092389777
0.07306648 -0.090982497 0.092248783
0.073706605 -0.091124356 0.092389777
0.066209584 -0.091329008 0.091619417
0.066900231 -0.091329008 0.091619417
0.067659639 -0.091116741 0.091407448
0.06837415 -0.091045976 0.091336772
0.069065735 -0.091045976 0.091336772
0.06982819 -0.090833694 0.091124788
0.070520476 -0.090833694 0.091124788
0.071236849 -0.090762943 0.091054142
0.071905054 -0.090833694 0.091124788
0.072548218 -0.09097521 0.091266125
0.073289625 -0.090833694 0.091124788
0.073906831 -0.091045976 0.091336772
0.074573152 -0.091116741 0.091407448
0.066299394 -0.091535002 0.090847746
0.067013659 -0.0914644 0.090776935
0.067774236 -0.09125264 0.090564445
0.068489917 -0.091182038 0.090493605
0.069252834 -0.090970248 0.090281144
0.069946297 -0.090970248 0.090281144
0.070687473 -0.090829059 0.090139478
0.07135731 -0.090899646 0.090210304
0.072051004 -0.090899646 0.090210304
0.072744697 -0.090899646 0.090210304
0.073438391 -0.090899646 0.090210304
0.074107051 -0.090970248 0.090281144
0.074749984 -0.091111436 0.090422809
0.067865923 -0.0914606 0.089790791
0.068651997 -0.091178879 0.089506805
0.069393165 -0.091038018 0.089364842
0.070111655 -0.090967596 0.089293852
0.070806749 -0.090967596 0.089293852
0.071550034 -0.090826735 0.089151859
0.072172627 -0.091038018 0.089364842
0.07286749 -0.091038018 0.089364842
0.073587142 -0.090967596 0.089293852
0.074257217 -0.091038018 0.089364842
0.068860382 -0.091037527 0.088375375
0.069627047 -0.090826735 0.088161916
0.070324257 -0.090826735 0.088161916
0.07102146 -0.090826735 0.088161916
0.07171867 -0.090826735 0.088161916
0.072464526 -0.090686202 0.088019595
0.073113084 -0.090826735 0.088161916
0.073785499 -0.090896994 0.088233069
0.069022462 -0.091039345 0.087383613
0.069931097 -0.090408474 0.086741701
0.070607729 -0.090478584 0.086813033
0.071307741 -0.090478584 0.086813033
0.071983665 -0.090548664 0.08688435
0.072683454 -0.090548664 0.08688435
0.073383234 -0.090548664 0.08688435
0.074058227 -0.090618744 0.086955667
0.069485545 -0.090134367 0.085460156
0.070258535 -0.089924589 0.085245684
0.070891201 -0.090134367 0.085460156
0.071570165 -0.090204298 0.085531667
0.072200485 -0.090414107 0.085746124
0.072878055 -0.090484008 0.085817605
0.073530592 -0.090623885 0.085960582
0.069879159 -0.089445338 0.083745062
0.070539191 -0.089584857 0.083888367
0.071151048 -0.089863911 0.084174976
0.07176102 -0.09014298 0.0844616
0.072393216 -0.090352282 0.084676549
0.073096983 -0.090352282 0.084676549
0.073727064 -0.090561569 0.084891543
0.069424473 -0.089179501 0.082455248
0.070110708 -0.089249104 0.082527041
0.07077308 -0.089388296 0.082670689
0.071458139 -0.089457914 0.082742527
0.072095014 -0.089666709 0.082957983
0.072778672 -0.089736298 0.083029792
0.073510505 -0.089666709 0.082957983
0 0 0 1 0 0 0 1 0 0 0 1 0 0 0 0 0 575 1 0 0
