ply
format ascii 1.0
comment PCL generated
element vertex 564
property float x
property float y
property float z
element camera 1
property float view_px
property float view_py
property float view_pz
property float x_axisx
property float x_axisy
property float x_axisz
property float y_axisx
property float y_axisy
property float y_axisz
property float z_axisx
property float z_axisy
property float z_axisz
property float focal
property float scalex
property float scaley
property float centerx
property float centery
property int viewportx
property int viewporty
property float k1
property float k2
end_header
0.069163054 -0.088430643 0.13142878
0.069792576 -0.088430643 0.13142878
0.070395909 -0.088509321 0.13149148
0.070998751 -0.088588044 0.13155422
0.071601145 -0.088666752 0.13161692
0.067853481 -0.089032859 0.1311094
0.068482541 -0.089032859 0.1311094
0.069111593 -0.089032859 0.1311094
0.069740646 -0.089032859 0.1311094
0.070395909 -0.0889543 0.13104652
0.070972323 -0.089111388 0.13117227
0.071601145 -0.089111388 0.13117227
0.072203062 -0.089189947 0.13123517
0.072804518 -0.089268491 0.13129804
0.067174368 -0.089634418 0.13079068
0.067828223 -0.089556038 0.13072763
0.068457045 -0.089556038 0.13072763
0.069111593 -0.089477658 0.13066459
0.069740646 -0.089477658 0.13066459
0.070369706 -0.089477658 0.13066459
0.070972323 -0.089556038 0.13072763
0.071574479 -0.089634418 0.13079068
0.072176166 -0.089712799 0.13085373
0.072750241 -0.089869559 0.13097982
0.073378131 -0.089869559 0.13097982
0.066520996 -0.090157107 0.13040942
0.067149349 -0.090157107 0.13040942
0.067777701 -0.090157107 0.13040942
0.068457045 -0.090000674 0.130283
0.069060132 -0.090078905 0.13034621
0.069714688 -0.090000674 0.130283
0.070317306 -0.090078905 0.13034621
0.070945889 -0.090078905 0.13034621
0.071547814 -0.090157107 0.13040942
0.072149262 -0.090235338 0.13047263
0.072750241 -0.090313539 0.13053584
0.073350765 -0.090391725 0.13059902
0.073950805 -0.090469956 0.13066225
0.065843523 -0.090757519 0.13009186
0.066471405 -0.090757519 0.13009186
0.067099288 -0.090757519 0.13009186
0.067727178 -0.090757519 0.13009186
0.068380557 -0.090679482 0.13002849
0.069034405 -0.090601414 0.1299651
0.069662757 -0.090601414 0.1299651
0.070291109 -0.090601414 0.1299651
0.070919462 -0.090601414 0.1299651
0.071521141 -0.090679482 0.13002849
0.072122365 -0.090757519 0.13009186
0.072750241 -0.090757519 0.13009186
0.073350765 -0.090835541 0.13015521
0.073950805 -0.090913609 0.1302186
0.074550383 -0.090991646 0.13028197
0.065769851 -0.091435134 0.12983848
0.066446617 -0.091279358 0.12971139
0.067074262 -0.091279358 0.12971139
0.067701921 -0.091279358 0.12971139
0.068329573 -0.091279358 0.12971139
0.068982944 -0.091201499 0.12964788
0.069636784 -0.091123626 0.12958434
0.070264906 -0.091123626 0.12958434
0.070893019 -0.091123626 0.12958434
0.071494475 -0.091201499 0.12964788
0.072122365 -0.091201499 0.12964788
0.072695971 -0.091357261 0.12977494
0.073323391 -0.091357261 0.12977494
0.073923208 -0.091435134 0.12983848
0.07452254 -0.091513023 0.12990203
0.065769851 -0.091878608 0.12939501
0.066421822 -0.091800898 0.12933129
0.067074262 -0.091723174 0.12926759
0.067676648 -0.091800898 0.12933129
0.068304069 -0.091800898 0.12933129
0.068982944 -0.091645479 0.1292039
0.069610827 -0.091645479 0.1292039
0.070238717 -0.091645479 0.1292039
0.070866592 -0.091645479 0.1292039
0.071494475 -0.091645479 0.1292039
0.072095469 -0.091723174 0.12926759
0.072668836 -0.091878608 0.12939501
0.073296025 -0.091878608 0.12939501
0.073923208 -0.091878608 0.12939501
0.07452254 -0.091956347 0.12945871
0.065745287 -0.092399657 0.1290154
0.066397026 -0.092322096 0.12895152
0.067049235 -0.092244551 0.12888765
0.067676648 -0.092244551 0.12888765
0.068304069 -0.092244551 0.12888765
0.068982944 -0.092089459 0.12875992
0.069610827 -0.092089459 0.12875992
0.070238717 -0.092089459 0.12875992
0.070893019 -0.092011914 0.12869605
0.071494475 -0.092089459 0.12875992
0.072095469 -0.09216699 0.12882377
0.072695971 -0.092244551 0.12888765
0.073323391 -0.092244551 0.12888765
0.073923208 -0.092322096 0.12895152
0.07452254 -0.092399657 0.1290154
0.066397026 -0.092765585 0.12850803
0.067074262 -0.092610806 0.12837996
0.067676648 -0.092688203 0.128444
0.068329573 -0.092610806 0.12837996
0.068982944 -0.092533439 0.12831593
0.069610827 -0.092533439 0.12831593
0.070264906 -0.092456073 0.1282519
0.070919462 -0.092378676 0.12818785
0.071494475 -0.092533439 0.12831593
0.072122365 -0.092533439 0.12831593
0.072723113 -0.092610806 0.12837996
0.073323391 -0.092688203 0.128444
0.073950805 -0.092688203 0.128444
0.074550383 -0.092765585 0.12850803
0.067074262 -0.093054622 0.12793614
0.067701921 -0.093054622 0.12793614
0.068355061 -0.092977419 0.12787196
0.069008671 -0.092900217 0.12780775
0.069636784 -0.092900217 0.12780775
0.070317306 -0.092745766 0.12767935
0.070998751 -0.09259133 0.12755093
0.071601145 -0.092668533 0.12761512
0.072149262 -0.092900217 0.12780775
0.072723113 -0.093054622 0.12793614
0.073323391 -0.093131855 0.12800035
0.073950805 -0.093131855 0.12800035
0.067049235 -0.093575507 0.1275567
0.067701921 -0.093498439 0.12749232
0.068355061 -0.0934214 0.12742797
0.069008671 -0.093344361 0.12736361
0.069688715 -0.093190253 0.12723486
0.070291109 -0.093267292 0.12729923
0.07105162 -0.092882037 0.12697738
0.071654484 -0.092959076 0.12704174
0.072176166 -0.093267292 0.12729923
0.072723113 -0.093498439 0.12749232
0.073350765 -0.093498439 0.12749232
0.073950805 -0.093575507 0.1275567
0.067929275 -0.093250275 0.12646769
0.068635523 -0.09301962 0.12627411
0.069291703 -0.092942744 0.12620957
0.069948368 -0.09286584 0.12614504
0.070605494 -0.092788965 0.1260805
0.071183786 -0.092942744 0.12620957
0.071734481 -0.0931734 0.12640318
0.072364479 -0.0931734 0.12640318
0.072913058 -0.093404055 0.12659676
0.073460236 -0.093634725 0.12679039
0.068864986 -0.092774928 0.125246
0.069523275 -0.092698216 0.1251813
0.070078187 -0.09292838 0.1253754
0.070710286 -0.09292838 0.1253754
0.071342386 -0.09292838 0.1253754
0.071921147 -0.093081817 0.12550482
0.072472081 -0.093311965 0.12569889
0.073597088 -0.093695566 0.1260224
0.071181864 -0.091997325 0.12376086
0.071871042 -0.091844201 0.12363113
0.069495507 -0.090305567 0.1206443
0.0701143 -0.090381771 0.12070948
0.07068114 -0.090610474 0.12090509
0.071220621 -0.090915382 0.12116589
0.069621816 -0.090380847 0.11986192
0.070267268 -0.090380847 0.11986192
0.070835523 -0.090609014 0.120058
0.071454301 -0.090685084 0.12012337
0.072072625 -0.09076114 0.12018874
0.07266403 -0.090913266 0.12031946
0.073307842 -0.090913266 0.12031946
0.069101505 -0.090457782 0.11907789
0.069748126 -0.090457782 0.11907789
0.070343763 -0.090609565 0.11920892
0.070938446 -0.090761334 0.11933997
0.071584128 -0.090761334 0.11933997
0.072203614 -0.09083724 0.11940552
0.072796188 -0.090989038 0.11953658
0.07344117 -0.090989038 0.11953658
0.074059255 -0.09106493 0.1196021
0.069251671 -0.090460643 0.1182265
0.069823913 -0.090687811 0.11842357
0.070445739 -0.090763554 0.11848927
0.071092822 -0.090763554 0.11848927
0.071739912 -0.090763554 0.11848927
0.072334602 -0.090915009 0.11862066
0.072954789 -0.090990737 0.11868635
0.073627844 -0.090915009 0.11862066
0.074247569 -0.090990737 0.11868635
0.068801999 -0.090314358 0.1172414
0.069401838 -0.090465471 0.11737311
0.07002601 -0.090541065 0.11743897
0.070649713 -0.090616614 0.11750482
0.071247205 -0.090767741 0.11763655
0.071895704 -0.090767741 0.11763655
0.072518006 -0.09084329 0.11770241
0.073139817 -0.090918869 0.11776827
0.07376118 -0.090994418 0.11783411
0.068324015 -0.090246126 0.11631969
0.068925969 -0.090396911 0.11645171
0.069552004 -0.090472341 0.11651775
0.07015232 -0.090623111 0.11664979
0.070777193 -0.09069851 0.11671583
0.071401589 -0.09077391 0.11678185
0.072051495 -0.09077391 0.11678185
0.072622791 -0.09100011 0.11697993
0.073245555 -0.091075495 0.11704594
0.073894516 -0.091075495 0.11704594
0.074543484 -0.091075495 0.11704594
0.068520486 -0.090104997 0.11532946
0.069099523 -0.090330675 0.11552802
0.069702171 -0.090481147 0.1156604
0.07027863 -0.09070684 0.11585897
0.070904672 -0.090782076 0.11592516
0.071530238 -0.090857297 0.11599134
0.072129384 -0.091007754 0.11612374
0.072753794 -0.09108299 0.11618991
0.073404156 -0.09108299 0.11618991
0.074027851 -0.091158226 0.11625612
0.074677989 -0.091158226 0.11625612
0.069273077 -0.090266749 0.114602
0.069877364 -0.090416893 0.11473471
0.070455462 -0.090642095 0.11493376
0.071057647 -0.090792209 0.11506648
0.071658894 -0.090942353 0.11519919
0.072233245 -0.091167539 0.11539826
0.072858579 -0.091242626 0.11546463
0.073483452 -0.091317669 0.11553097
0.074107848 -0.091392756 0.11559734
0.074758686 -0.091392756 0.11559734
0.068304934 -0.089680851 0.113208
0.068864316 -0.089980468 0.1134741
0.069421835 -0.090280041 0.11374018
0.070002504 -0.090504766 0.11393975
0.070607036 -0.090654537 0.11407277
0.071185127 -0.090879261 0.11427234
0.071761817 -0.091103956 0.1144719
0.072389022 -0.091178864 0.11453845
0.072989583 -0.091328636 0.11467147
0.073615611 -0.091403559 0.11473799
0.074241191 -0.091478452 0.11480451
0.067840032 -0.089547992 0.11220948
0.068402231 -0.089846939 0.11247624
0.068987116 -0.090071127 0.11267629
0.069545805 -0.090370074 0.11294305
0.070127644 -0.090594262 0.1131431
0.070758604 -0.090669006 0.1132098
0.071287118 -0.091042683 0.11354323
0.0719162 -0.091117397 0.11360991
0.072492883 -0.091341615 0.11380999
0.073094368 -0.091491088 0.11394337
0.073721342 -0.091565818 0.11401004
0.074347854 -0.091640562 0.11407673
0.067888215 -0.089865178 0.11160944
0.068450883 -0.090163469 0.11187686
0.069060795 -0.090312615 0.11201057
0.069669768 -0.090461731 0.11214426
0.07027781 -0.090610877 0.11227798
0.070884913 -0.090760022 0.11241169
0.071440093 -0.091058284 0.11267908
0.072044849 -0.09120743 0.11281279
0.072622709 -0.091431141 0.11301337
0.07325156 -0.091505706 0.1130802
0.073853508 -0.091654837 0.11321391
0.067371383 -0.089885443 0.11074068
0.067936398 -0.090183049 0.11100873
0.068572506 -0.090257466 0.11107577
0.069159031 -0.090480655 0.11127682
0.069744147 -0.09070389 0.11147788
0.070377916 -0.090778291 0.11154489
0.07101123 -0.090852663 0.1116119
0.071593069 -0.091075897 0.11181296
0.072173499 -0.091299102 0.11201403
0.072778493 -0.09144792 0.11214805
0.07340876 -0.091522306 0.11221506
0.074038535 -0.091596708 0.1122821
0.067419097 -0.090204641 0.11013864
0.068032756 -0.090353101 0.11027302
0.068621159 -0.090575814 0.11047457
0.069257274 -0.090650052 0.11054173
0.069868118 -0.090798512 0.11067611
0.070503056 -0.090872765 0.1107433
0.071137533 -0.090947002 0.11081047
0.071695052 -0.091243953 0.11107922
0.072327882 -0.091318175 0.11114639
0.072934285 -0.091466665 0.11128075
0.073565945 -0.091540903 0.11134796
0.074170701 -0.091689393 0.11148232
0.067538381 -0.090302259 0.1093339
0.068129122 -0.09052448 0.10953596
0.068742782 -0.090672627 0.10967065
0.069380067 -0.090746686 0.10973799
0.070016876 -0.09082076 0.10980535
0.070653223 -0.090894833 0.1098727
0.071238585 -0.091117054 0.11007473
0.071848027 -0.091265187 0.11020944
0.072482258 -0.091339275 0.11027679
0.073064104 -0.091561481 0.11047885
0.067633808 -0.09047547 0.10859503
0.068297759 -0.09047547 0.10859503
0.068937384 -0.09054935 0.10866253
0.069551982 -0.090697169 0.10879757
0.07019043 -0.090771094 0.10886508
0.070828415 -0.090844989 0.1089326
0.071415417 -0.091066688 0.10913514
0.072026506 -0.091214508 0.10927017
0.072662368 -0.091288432 0.10933769
0.073297784 -0.091362327 0.1094052
0.067824662 -0.090355009 0.10758407
0.068442307 -0.090502486 0.10771945
0.069083333 -0.090576246 0.10778713
0.069748454 -0.090576246 0.10778713
0.070388779 -0.090649977 0.10785481
0.071003608 -0.090797469 0.10799018
0.071617506 -0.090944946 0.10812555
0.072230466 -0.091092438 0.1082609
0.072893947 -0.091092438 0.1082609
0.073531464 -0.091166154 0.10832858
0.068610936 -0.090457946 0.10677405
0.069253616 -0.090531513 0.10684189
0.069920376 -0.090531513 0.10684189
0.070562333 -0.090605095 0.10690975
0.071203835 -0.090678662 0.10697758
0.071819603 -0.090825826 0.10711327
0.07243444 -0.09097296 0.10724898
0.073099792 -0.09097296 0.10724898
0.073739178 -0.091046557 0.10731682
0.067536801 -0.090122074 0.10555428
0.068134807 -0.090342298 0.10575831
0.068803668 -0.090342298 0.10575831
0.069423892 -0.090489119 0.10589434
0.070092291 -0.090489119 0.10589434
0.070735887 -0.090562537 0.10596237
0.071353994 -0.090709358 0.1060984
0.071996436 -0.090782762 0.10616638
0.072612911 -0.090929583 0.10630241
0.073254175 -0.091002986 0.10637042
0.073946901 -0.090929583 0.10630241
0.067678541 -0.090156063 0.10467175
0.068301797 -0.090302557 0.10480811
0.068972304 -0.090302557 0.10480811
0.069569834 -0.090522304 0.10501266
0.070239641 -0.090522304 0.10501266
0.070909441 -0.090522304 0.10501266
0.071554221 -0.090595543 0.10508083
0.072198533 -0.090668797 0.10514902
0.072816886 -0.090815261 0.10528535
0.073485747 -0.090815261 0.10528535
0.067820273 -0.09019205 0.10378726
0.068492651 -0.09019205 0.10378726
0.069092758 -0.090411291 0.10399228
0.069764443 -0.090411291 0.10399228
0.070460677 -0.090338215 0.10392395
0.071107797 -0.090411291 0.10399228
0.071729414 -0.090557456 0.10412897
0.072375372 -0.090630502 0.10419729
0.073020846 -0.090703592 0.10426566
0.073691584 -0.090703592 0.10426566
0.06728822 -0.090230018 0.10290076
0.06793838 -0.090302944 0.10296927
0.068611935 -0.090302944 0.10296927
0.069285482 -0.090302944 0.10296927
0.069934718 -0.090375856 0.10303777
0.070608035 -0.090375856 0.10303777
0.071281351 -0.090375856 0.10303777
0.071929641 -0.090448752 0.10310628
0.072627984 -0.090375856 0.10303777
0.073275812 -0.090448752 0.10310628
0.07394889 -0.090448752 0.10310628
0.067381769 -0.090415463 0.10214961
0.06808012 -0.09034273 0.10208096
0.068755075 -0.09034273 0.10208096
0.069430031 -0.09034273 0.10208096
0.070104994 -0.09034273 0.10208096
0.070779949 -0.09034273 0.10208096
0.071454905 -0.09034273 0.10208096
0.072129861 -0.09034273 0.10208096
0.072779559 -0.090415463 0.10214961
0.073479779 -0.09034273 0.10208096
0.074129 -0.090415463 0.10214961
0.066799663 -0.090602249 0.10139717
0.067498714 -0.090529665 0.10132831
0.068174608 -0.090529665 0.10132831
0.068874359 -0.090457097 0.10125948
0.069550484 -0.090457097 0.10125948
0.070226617 -0.090457097 0.10125948
0.070927307 -0.090384498 0.10119063
0.071603663 -0.090384498 0.10119063
0.072280027 -0.090384498 0.10119063
0.072931126 -0.090457097 0.10125948
0.073607258 -0.090457097 0.10125948
0.074283384 -0.090457097 0.10125948
0.066892281 -0.090790361 0.10064338
0.067615651 -0.090645522 0.10050537
0.068292722 -0.090645522 0.10050537
0.068993635 -0.090573102 0.10043637
0.069670938 -0.090573102 0.10043637
0.07034824 -0.090573102 0.10043637
0.0710501 -0.090500683 0.10036735
0.071727633 -0.090500683 0.10036735
0.072380133 -0.090573102 0.10043637
0.073057435 -0.090573102 0.10043637
0.073709242 -0.090645522 0.10050537
0.074412033 -0.090573102 0.10043637
0.066984899 -0.09097977 0.099888265
0.067685813 -0.090907529 0.099819094
0.068363585 -0.090907529 0.099819094
0.06908907 -0.090763032 0.099680766
0.069791399 -0.090690777 0.099611565
0.070469871 -0.090690777 0.099611565
0.071148336 -0.090690777 0.099611565
0.071826808 -0.090690777 0.099611565
0.07250528 -0.090690777 0.099611565
0.073183753 -0.090690777 0.099611565
0.073836721 -0.090763032 0.099680766
0.074514955 -0.090763032 0.099680766
0.067054361 -0.091242626 0.099201173
0.06777937 -0.091098443 0.099062502
0.06845808 -0.091098443 0.099062502
0.069136783 -0.091098443 0.099062502
0.06986367 -0.090954274 0.098923817
0.070542842 -0.090954274 0.098923817
0.071271136 -0.09081009 0.098785147
0.071901187 -0.090954274 0.098923817
0.07258036 -0.090954274 0.098923817
0.073259532 -0.090954274 0.098923817
0.073913217 -0.091026351 0.098993152
0.074617878 -0.090954274 0.098923817
0.067123823 -0.091506436 0.098513067
0.067826152 -0.091434523 0.098443568
0.068552569 -0.091290668 0.09830457
0.069232211 -0.091290668 0.09830457
0.069960035 -0.091146842 0.098165557
0.070664465 -0.091074929 0.098096073
0.071344808 -0.091074929 0.098096073
0.07202515 -0.091074929 0.098096073
0.072705492 -0.091074929 0.098096073
0.073385842 -0.091074929 0.098096073
0.074040696 -0.091146842 0.098165557
0.0747208 -0.091146842 0.098165557
0.067989863 -0.0914125 0.097475648
0.068670683 -0.0914125 0.097475648
0.069399208 -0.091268986 0.097336307
0.070080489 -0.091268986 0.097336307
0.070786089 -0.091197252 0.097266644
0.071467601 -0.091197252 0.097266644
0.072124325 -0.091268986 0.097336307
0.072805606 -0.091268986 0.097336307
0.073486887 -0.091268986 0.097336307
0.074168175 -0.091268986 0.097336307
0.067424826 -0.091535971 0.096645087
0.068130195 -0.09146437 0.096575245
0.068812415 -0.09146437 0.096575245
0.069494635 -0.09146437 0.096575245
0.070200935 -0.091392785 0.096505418
0.070883393 -0.091392785 0.096505418
0.071565844 -0.091392785 0.096505418
0.072248295 -0.091392785 0.096505418
0.072930746 -0.091392785 0.096505418
0.073587939 -0.09146437 0.096575245
0.074295655 -0.091392785 0.096505418
0.068270527 -0.091518253 0.095672861
0.068977773 -0.091446817 0.09560284
0.069661632 -0.091446817 0.09560284
0.070369571 -0.091375396 0.095532864
0.071029343 -0.091446817 0.09560284
0.071737759 -0.091375396 0.095532864
0.072397061 -0.091446817 0.09560284
0.073080912 -0.091446817 0.09560284
0.073739506 -0.091518253 0.095672861
0.074423134 -0.091518253 0.095672861
0.06772583 -0.091574088 0.094768465
0.068434246 -0.091502815 0.094698295
0.069119513 -0.091502815 0.094698295
0.069804773 -0.091502815 0.094698295
0.070490032 -0.091502815 0.094698295
0.0711753 -0.091502815 0.094698295
0.071860559 -0.091502815 0.094698295
0.072521023 -0.091574088 0.094768465
0.073231079 -0.091502815 0.094698295
0.073916346 -0.091502815 0.094698295
0.067841597 -0.091703027 0.093932435
0.068621352 -0.091418669 0.093651101
0.06930849 -0.091418669 0.093651101
0.070019484 -0.091347545 0.093580768
0.070706852 -0.091347545 0.093580768
0.071394227 -0.091347545 0.093580768
0.072032474 -0.091489732 0.093721434
0.072744168 -0.091418669 0.093651101
0.073431298 -0.091418669 0.093651101
0.074067913 -0.091560841 0.093791768
0.068026833 -0.091620833 0.092883244
0.068761684 -0.091478974 0.092742249
0.069521092 -0.091266215 0.092530772
0.070210338 -0.091266215 0.092530772
0.070947759 -0.091124356 0.092389777
0.071613155 -0.091195285 0.092460245
0.07225351 -0.091337115 0.092601255
0.072967306 -0.091266215 0.092530772
0.073656552 -0.091266215 0.092530772
0.068165764 -0.091682807 0.091972724
0.068948783 -0.091399774 0.091690093
0.069733694 -0.091116741 0.091407448
0.070425048 -0.091116741 0.091407448
0.071116395 -0.091116741 0.091407448
0.07180775 -0.091116741 0.091407448
0.072449982 -0.091258273 0.091548771
0.073190451 -0.091116741 0.091407448
0.073831744 -0.091258273 0.091548771
0.06837415 -0.091535002 0.090847746
0.069135897 -0.091323212 0.09063527
0.069875434 -0.091182038 0.090493605
0.070639752 -0.090970248 0.090281144
0.071333215 -0.090970248 0.090281144
0.072026677 -0.090970248 0.090281144
0.072720133 -0.090970248 0.090281144
0.073413588 -0.090970248 0.090281144
0.07405699 -0.091111436 0.090422809
0.068559378 -0.0914606 0.089790791
0.069299616 -0.09131974 0.089648798
0.070064411 -0.091108456 0.089435846
0.070806749 -0.090967596 0.089293852
0.071477763 -0.091038018 0.089364842
0.072196953 -0.090967596 0.089293852
0.072892047 -0.090967596 0.089293852
0.073562354 -0.091038018 0.089364842
0.074257217 -0.091038018 0.089364842
0.069463328 -0.091318578 0.088660017
0.070324257 -0.090826735 0.088161916
0.071069174 -0.090686202 0.088019595
0.07171867 -0.090826735 0.088161916
0.072464526 -0.090686202 0.088019595
0.073162198 -0.090686202 0.088019595
0.069767378 -0.090899155 0.087240964
0.070631355 -0.090408474 0.086741701
0.071307741 -0.090478584 0.086813033
0.071983665 -0.090548664 0.08688435
0.072683454 -0.090548664 0.08688435
0.073383234 -0.090548664 0.08688435
0.074058227 -0.090618744 0.086955667
0.070281923 -0.089854643 0.085174188
0.070962064 -0.089924589 0.085245684
0.071570165 -0.090204298 0.085531667
0.072200485 -0.090414107 0.085746124
0.072902381 -0.090414107 0.085746124
0.073604271 -0.090414107 0.085746124
0.070539191 -0.089584857 0.083888367
0.071174666 -0.089794159 0.084103331
0.07176102 -0.09014298 0.0844616
0.072393216 -0.090352282 0.084676549
0.073096983 -0.090352282 0.084676549
0.073776186 -0.090422049 0.084748223
0.069424473 -0.089179501 0.082455248
0.070133857 -0.089179501 0.082455248
0.07077308 -0.089388296 0.082670689
0.071458139 -0.089457914 0.082742527
0.072095014 -0.089666709 0.082957983
0.072754577 -0.089805916 0.08310163
0.073510505 -0.089666709 0.082957983
0.074120015 -0.089945123 0.083245263
0.069699518 -0.088847876 0.08108978
0.070342243 -0.089056194 0.081305757
0.071006961 -0.089195073 0.081449732
0.071670741 -0.089333951 0.081593692
0.072381295 -0.089333951 0.081593692
0.07309185 -0.089333951 0.081593692
0.073778085 -0.089403361 0.08166568
0.074488401 -0.089403361 0.08166568
0 0 0 1 0 0 0 1 0 0 0 1 0 0 0 0 0 564 1 0 0
