ply
format ascii 1.0
comment PCL generated
element vertex 540
property float x
property float y
property float z
element camera 1
property float view_px
property float view_py
property float view_pz
property float x_axisx
property float x_axisy
property float x_axisz
property float y_axisx
property float y_axisy
property float y_axisz
property float z_axisx
property float z_axisy
property float z_axisz
property float focal
property float scalex
property float scaley
property float centerx
property float centery
property int viewportx
property int viewporty
property float k1
property float k2
end_header
0.069662757 -0.088824168 0.13174236
0.070264906 -0.088902891 0.13180508
0.070893019 -0.088902891 0.13180508
0.068355061 -0.089425579 0.1314238
0.068982944 -0.089425579 0.1314238
0.069636784 -0.089347035 0.13136092
0.070264906 -0.089347035 0.13136092
0.070866592 -0.089425579 0.1314238
0.071494475 -0.089425579 0.1314238
0.072122365 -0.089425579 0.1314238
0.067049235 -0.090026304 0.1311059
0.067701921 -0.089947909 0.13104284
0.068355061 -0.089869559 0.13097982
0.068982944 -0.089869559 0.13097982
0.069610827 -0.089869559 0.13097982
0.070264906 -0.089791179 0.13091677
0.070866592 -0.089869559 0.13097982
0.071467817 -0.089947909 0.13104284
0.072068557 -0.090026304 0.1311059
0.072668836 -0.090104669 0.13116893
0.066397026 -0.090548158 0.13072546
0.067024209 -0.090548158 0.13072546
0.067676648 -0.090469956 0.13066225
0.068329573 -0.090391725 0.13059902
0.068957217 -0.090391725 0.13059902
0.069610827 -0.090313539 0.13053584
0.070238717 -0.090313539 0.13053584
0.070840165 -0.090391725 0.13059902
0.071467817 -0.090391725 0.13059902
0.072068557 -0.090469956 0.13066225
0.072641701 -0.090626389 0.13078867
0.073241286 -0.09070459 0.13085188
0.073840387 -0.090782821 0.13091509
0.066372231 -0.091069698 0.13034534
0.067024209 -0.090991646 0.13028197
0.067651391 -0.090991646 0.13028197
0.068304069 -0.090913609 0.1302186
0.068931475 -0.090913609 0.1302186
0.069558896 -0.090913609 0.1302186
0.070212521 -0.090835541 0.13015521
0.070840165 -0.090835541 0.13015521
0.071441144 -0.090913609 0.1302186
0.072041661 -0.090991646 0.13028197
0.072641701 -0.091069698 0.13034534
0.073241286 -0.091147751 0.13040872
0.073840387 -0.091225803 0.13047211
0.065696165 -0.091668785 0.13002911
0.066347443 -0.091590896 0.12996557
0.066974156 -0.091590896 0.12996557
0.067600869 -0.091590896 0.12996557
0.068278573 -0.091435134 0.12983848
0.068905748 -0.091435134 0.12983848
0.069558896 -0.091357261 0.12977494
0.070186317 -0.091357261 0.12977494
0.070813723 -0.091357261 0.12977494
0.071441144 -0.091357261 0.12977494
0.072041661 -0.091435134 0.12983848
0.072641701 -0.091513023 0.12990203
0.073241286 -0.091590896 0.12996557
0.073867999 -0.091590896 0.12996557
0.074466862 -0.091668785 0.13002911
0.065696165 -0.092111781 0.12958613
0.066322647 -0.092111781 0.12958613
0.066974156 -0.092034042 0.12952241
0.067600869 -0.092034042 0.12952241
0.068253078 -0.091956347 0.12945871
0.068905748 -0.091878608 0.12939501
0.069532938 -0.091878608 0.12939501
0.070186317 -0.091800898 0.12933129
0.070813723 -0.091800898 0.12933129
0.071441144 -0.091800898 0.12933129
0.072014757 -0.091956347 0.12945871
0.072641701 -0.091956347 0.12945871
0.073213905 -0.092111781 0.12958613
0.073867999 -0.092034042 0.12952241
0.074466862 -0.092111781 0.12958613
0.066297852 -0.092632309 0.12920702
0.066949122 -0.092554763 0.12914315
0.067600869 -0.092477202 0.12907927
0.068253078 -0.092399657 0.1290154
0.068880014 -0.092399657 0.1290154
0.069558896 -0.092244551 0.12888765
0.070186317 -0.092244551 0.12888765
0.070813723 -0.092244551 0.12888765
0.071441144 -0.092244551 0.12888765
0.072041661 -0.092322096 0.12895152
0.072641701 -0.092399657 0.1290154
0.073241286 -0.092477202 0.12907927
0.073867999 -0.092477202 0.12907927
0.074494705 -0.092477202 0.12907927
0.066322647 -0.09299776 0.12870017
0.066974156 -0.092920363 0.12863611
0.067600869 -0.092920363 0.12863611
0.068253078 -0.092842981 0.12857208
0.068931475 -0.092688203 0.128444
0.069584869 -0.092610806 0.12837996
0.070186317 -0.092688203 0.128444
0.070866592 -0.092533439 0.12831593
0.071441144 -0.092688203 0.128444
0.072068557 -0.092688203 0.128444
0.072668836 -0.092765585 0.12850803
0.073268652 -0.092842981 0.12857208
0.073867999 -0.092920363 0.12863611
0.074494705 -0.092920363 0.12863611
0.066949122 -0.093440741 0.12825717
0.067600869 -0.093363509 0.12819296
0.068253078 -0.093286291 0.12812877
0.068905748 -0.093209058 0.12806454
0.069610827 -0.092977419 0.12787196
0.070291109 -0.092822984 0.12774354
0.070919462 -0.092822984 0.12774354
0.071521141 -0.092900217 0.12780775
0.072122365 -0.092977419 0.12787196
0.072695971 -0.093131855 0.12800035
0.073323391 -0.093131855 0.12800035
0.073895596 -0.093286291 0.12812877
0.067600869 -0.093806654 0.1277498
0.068304069 -0.093575507 0.1275567
0.068982944 -0.0934214 0.12742797
0.069636784 -0.093344361 0.12736361
0.070291109 -0.093267292 0.12729923
0.070919462 -0.093267292 0.12729923
0.071574479 -0.093190253 0.12723486
0.072149262 -0.093344361 0.12736361
0.072723113 -0.093498439 0.12749232
0.073323391 -0.093575507 0.1275567
0.073950805 -0.093575507 0.1275567
0.067701921 -0.093942255 0.12704851
0.068431549 -0.093634725 0.12679039
0.069137327 -0.093404055 0.12659676
0.069818549 -0.093250275 0.12646769
0.070448309 -0.093250275 0.12646769
0.071078055 -0.093250275 0.12646769
0.071681149 -0.09332718 0.12653224
0.072229974 -0.093557835 0.12672584
0.072804518 -0.093711615 0.12685493
0.073378131 -0.093865395 0.126984
0.068712004 -0.093235269 0.12563421
0.069343165 -0.093235269 0.12563421
0.069974326 -0.093235269 0.12563421
0.070684098 -0.093005091 0.12544011
0.071236648 -0.093235269 0.12563421
0.071841151 -0.093311965 0.12569889
0.072445177 -0.093388706 0.12576361
0.073597088 -0.093695566 0.1260224
0.069934957 -0.091920793 0.12369601
0.070519589 -0.092073873 0.12382573
0.07120806 -0.091920793 0.12369601
0.072107822 -0.092992559 0.12460414
0.072660394 -0.093222216 0.12479872
0.073174506 -0.090839148 0.12110068
0.070758335 -0.090837181 0.12025408
0.071376413 -0.090913266 0.12031946
0.072046429 -0.090837181 0.12025408
0.072690465 -0.090837181 0.12025408
0.073361173 -0.09076114 0.12018874
0.070267268 -0.09083724 0.11940552
0.070912711 -0.09083724 0.11940552
0.071506232 -0.090989038 0.11953658
0.072151214 -0.090989038 0.11953658
0.072796188 -0.090989038 0.11953658
0.07344117 -0.090989038 0.11953658
0.074166864 -0.090761334 0.11933997
0.069773391 -0.090839282 0.11855495
0.070394747 -0.090915009 0.11862066
0.07104136 -0.090915009 0.11862066
0.071662024 -0.090990737 0.11868635
0.072308414 -0.090990737 0.11868635
0.072928362 -0.091066465 0.11875202
0.07354784 -0.091142192 0.11881775
0.074220672 -0.091066465 0.11875202
0.069376811 -0.090541065 0.11743897
0.069950223 -0.090767741 0.11763655
0.070573226 -0.09084329 0.11770241
0.071170017 -0.090994418 0.11783411
0.071817815 -0.090994418 0.11783411
0.072413206 -0.091145545 0.11796583
0.073034085 -0.091221109 0.11803171
0.073681176 -0.091221109 0.11803171
0.07435517 -0.091145545 0.11796583
0.069552004 -0.090472341 0.11651775
0.07015232 -0.090623111 0.11664979
0.070700705 -0.090924695 0.11691388
0.071350127 -0.090924695 0.11691388
0.071947634 -0.091075495 0.11704594
0.072570391 -0.091150895 0.11711198
0.073219113 -0.091150895 0.11711198
0.073841184 -0.091226295 0.11717799
0.074462779 -0.09130168 0.11724402
0.069124311 -0.090255469 0.11546184
0.069702171 -0.090481147 0.1156604
0.070329152 -0.090556368 0.11572659
0.070904672 -0.090782076 0.11592516
0.071530238 -0.090857297 0.11599134
0.072103426 -0.09108299 0.11618991
0.072727591 -0.091158226 0.11625612
0.073351286 -0.091233462 0.11632229
0.073947854 -0.091383904 0.11645468
0.07457038 -0.09145917 0.11652087
0.075192437 -0.091534376 0.11658706
0.069273077 -0.090266749 0.114602
0.069902398 -0.090341821 0.11466834
0.070480719 -0.090567023 0.11486742
0.071083143 -0.090717167 0.11500014
0.071658894 -0.090942353 0.11519919
0.072233245 -0.091167539 0.11539826
0.072832383 -0.091317669 0.11553097
0.073430583 -0.091467813 0.11566368
0.074081182 -0.091467813 0.11566368
0.074704893 -0.09154287 0.11573003
0.069446631 -0.090205148 0.11367366
0.07002753 -0.090429857 0.11387321
0.070632294 -0.090579659 0.11400625
0.071236119 -0.090729445 0.1141393
0.071787544 -0.091029063 0.11440539
0.072363064 -0.091253743 0.11460495
0.072989583 -0.091328636 0.11467147
0.073589183 -0.091478452 0.11480451
0.07418786 -0.091628253 0.11493756
0.07478559 -0.09177804 0.1150706
0.069036238 -0.089921653 0.11254291
0.069620185 -0.090145871 0.11274299
0.070202723 -0.090370074 0.11294305
0.070809126 -0.090519547 0.11307642
0.071389101 -0.090743735 0.11327648
0.071967654 -0.090967953 0.11347656
0.072518855 -0.09126687 0.11374329
0.073094368 -0.091491088 0.11394337
0.073721342 -0.091565818 0.11401004
0.074321188 -0.091715276 0.11414342
0.068523854 -0.089939758 0.11167631
0.069109917 -0.090163469 0.11187686
0.069719359 -0.090312615 0.11201057
0.070327863 -0.090461731 0.11214426
0.070935436 -0.090610877 0.11227798
0.071516581 -0.090834588 0.11247854
0.072122037 -0.090983734 0.11261223
0.072700605 -0.09120743 0.11281279
0.073277757 -0.091431141 0.11301337
0.073906377 -0.091505706 0.1130802
0.074507862 -0.091654837 0.11321391
0.06859684 -0.090183049 0.11100873
0.069183588 -0.090406269 0.11120979
0.069818534 -0.090480655 0.11127682
0.070427977 -0.090629473 0.11141086
0.071061745 -0.09070389 0.11147788
0.07164406 -0.090927079 0.11167893
0.072276421 -0.091001481 0.11174594
0.072830424 -0.091299102 0.11201403
0.073434956 -0.09144792 0.11214805
0.074064977 -0.091522306 0.11221506
0.06869413 -0.090353101 0.11027302
0.069281831 -0.090575814 0.11047457
0.069917709 -0.090650052 0.11054173
0.070553109 -0.090724304 0.11060894
0.07116279 -0.090872765 0.1107433
0.071746044 -0.091095477 0.11094485
0.072379336 -0.09116973 0.11101204
0.072986215 -0.091318175 0.11114639
0.073618345 -0.091392428 0.11121358
0.074250005 -0.091466665 0.11128075
0.068225488 -0.090228185 0.10926655
0.068840086 -0.090376332 0.10940126
0.06950286 -0.090376332 0.10940126
0.070091262 -0.090598539 0.10960329
0.070753336 -0.090598539 0.10960329
0.071364895 -0.090746686 0.10973799
0.071924515 -0.091042981 0.11000741
0.07258518 -0.091042981 0.11000741
0.073167965 -0.091265187 0.11020944
0.073723137 -0.091561481 0.11047885
0.068418212 -0.090105921 0.10825744
0.069034688 -0.090253726 0.10839248
0.069674775 -0.09032765 0.10845999
0.070289604 -0.09047547 0.10859503
0.070928529 -0.09054935 0.10866253
0.071541727 -0.090697169 0.10879757
0.072153986 -0.090844989 0.1089326
0.072739564 -0.091066688 0.10913514
0.073401645 -0.091066688 0.10913514
0.073985122 -0.091288432 0.10933769
0.069204964 -0.090207532 0.10744873
0.069822133 -0.090355009 0.10758407
0.070487961 -0.090355009 0.10758407
0.071078695 -0.090576246 0.10778713
0.071693301 -0.090723708 0.10792249
0.072281457 -0.090944946 0.10812555
0.072919682 -0.091018677 0.1081932
0.073557429 -0.091092438 0.1082609
0.074247114 -0.091018677 0.1081932
0.068707302 -0.090163648 0.10650267
0.069326587 -0.090310797 0.10663836
0.069994047 -0.090310797 0.10663836
0.070611924 -0.090457946 0.10677405
0.071253896 -0.090531513 0.10684189
0.071870133 -0.090678662 0.10697758
0.072536424 -0.090678662 0.10697758
0.07317698 -0.090752259 0.10704544
0.07384304 -0.090752259 0.10704544
0.074509099 -0.090752259 0.10704544
0.06820637 -0.090122074 0.10555428
0.068827756 -0.09026891 0.1056903
0.069496863 -0.09026891 0.1056903
0.070165962 -0.09026891 0.1056903
0.070835069 -0.09026891 0.1056903
0.071429089 -0.090489119 0.10589434
0.072072223 -0.090562537 0.10596237
0.072740391 -0.090562537 0.10596237
0.073408552 -0.090562537 0.10596237
0.07407672 -0.090562537 0.10596237
0.069020487 -0.090156063 0.10467175
0.069667138 -0.090229318 0.10473993
0.070337877 -0.090229318 0.10473993
0.071008623 -0.090229318 0.10473993
0.071654335 -0.090302557 0.10480811
0.072299577 -0.090375811 0.10487629
0.072918862 -0.090522304 0.10501266
0.073562935 -0.090595543 0.10508083
0.074258469 -0.090522304 0.10501266
0.068588078 -0.089899749 0.10351388
0.069237307 -0.089972809 0.1035822
0.06986174 -0.09011896 0.10371891
0.070509791 -0.09019205 0.10378726
0.071182176 -0.09019205 0.10378726
0.071829528 -0.090265125 0.10385559
0.072501682 -0.090265125 0.10385559
0.073173828 -0.090265125 0.10385559
0.07394889 -0.089972809 0.1035822
0.068731219 -0.089938357 0.10262671
0.069381848 -0.090011299 0.10269523
0.070007689 -0.090157107 0.10283226
0.070681706 -0.090157107 0.10283226
0.07135573 -0.090157107 0.10283226
0.072029747 -0.090157107 0.10283226
0.072678514 -0.090230018 0.10290076
0.0733523 -0.090230018 0.10290076
0.074026078 -0.090230018 0.10290076
0.074699871 -0.090230018 0.10290076
0.068850502 -0.090051726 0.10180625
0.069526397 -0.090051726 0.10180625
0.070177965 -0.090124488 0.10187493
0.070853621 -0.090124488 0.10187493
0.071479701 -0.090269968 0.10201228
0.072154887 -0.090269968 0.10201228
0.072830088 -0.090269968 0.10201228
0.073505282 -0.090269968 0.10201228
0.074180469 -0.090269968 0.10201228
0.074907579 -0.090124488 0.10187493
0.067732595 -0.08980386 0.10063994
0.068339966 -0.090021595 0.10084644
0.068993635 -0.090094179 0.1009153
0.069670938 -0.090094179 0.1009153
0.070323914 -0.090166762 0.10098413
0.070951864 -0.09031193 0.10112181
0.071628459 -0.09031193 0.10112181
0.072305053 -0.09031193 0.10112181
0.072956391 -0.090384498 0.10119063
0.073632762 -0.090384498 0.10119063
0.074334845 -0.09031193 0.10112181
0.07501144 -0.09031193 0.10112181
0.067826152 -0.089993775 0.099884316
0.06845808 -0.090138614 0.10002233
0.069112927 -0.090211019 0.10009132
0.069791399 -0.090211019 0.10009132
0.070445538 -0.090283453 0.10016035
0.071074657 -0.090428278 0.10029835
0.071727633 -0.090500683 0.10036735
0.072430186 -0.090428278 0.10029835
0.0730827 -0.090500683 0.10036735
0.073760234 -0.090500683 0.10036735
0.074437767 -0.090500683 0.10036735
0.075141266 -0.090428278 0.10029835
0.067943089 -0.090112776 0.099058226
0.068576187 -0.090257287 0.099196553
0.069232211 -0.090329513 0.099265724
0.069911852 -0.090329513 0.099265724
0.070542842 -0.090474024 0.099404067
0.071197458 -0.090546265 0.099473238
0.071851596 -0.090618521 0.099542424
0.072530299 -0.090618521 0.099542424
0.07320901 -0.090618521 0.099542424
0.073862225 -0.090690777 0.099611565
0.07454069 -0.090690777 0.099611565
0.075219162 -0.090690777 0.099611565
0.067989863 -0.090449676 0.098438472
0.068623438 -0.09059386 0.098577142
0.069279924 -0.090665936 0.098646462
0.069960035 -0.090665936 0.098646462
0.070615813 -0.090738028 0.098715812
0.071295694 -0.090738028 0.098715812
0.071950771 -0.09081009 0.098785147
0.072630413 -0.09081009 0.098785147
0.073259532 -0.090954274 0.098923817
0.073938712 -0.090954274 0.098923817
0.074617878 -0.090954274 0.098923817
0.075348981 -0.09081009 0.098785147
0.067378514 -0.090715349 0.097748548
0.068036646 -0.090787247 0.097818047
0.068717927 -0.090787247 0.097818047
0.069399208 -0.090787247 0.097818047
0.070056401 -0.09085916 0.097887546
0.070737444 -0.09085916 0.097887546
0.071418494 -0.09085916 0.097887546
0.072074741 -0.090931088 0.09795706
0.072705492 -0.091074929 0.098096073
0.073385842 -0.091074929 0.098096073
0.074066184 -0.091074929 0.098096073
0.074746527 -0.091074929 0.098096073
0.075400911 -0.091146842 0.098165557
0.067447983 -0.090981975 0.097057641
0.068130195 -0.090981975 0.097057641
0.068812415 -0.090981975 0.097057641
0.069494635 -0.090981975 0.097057641
0.070200935 -0.090910226 0.096987978
0.070834741 -0.091053739 0.097127318
0.071541287 -0.090981975 0.097057641
0.072198704 -0.091053739 0.097127318
0.072880685 -0.091053739 0.097127318
0.073512152 -0.091197252 0.097266644
0.074193664 -0.091197252 0.097266644
0.074875176 -0.091197252 0.097266644
0.067586899 -0.091034859 0.096156254
0.068247139 -0.09110643 0.096226066
0.068954147 -0.091034859 0.096156254
0.069637768 -0.091034859 0.096156254
0.070297301 -0.09110643 0.096226066
0.070980698 -0.09110643 0.096226066
0.07166408 -0.09110643 0.096226066
0.07234747 -0.09110643 0.096226066
0.073005833 -0.091178015 0.096295893
0.073688991 -0.091178015 0.096295893
0.07437215 -0.091178015 0.096295893
0.067679517 -0.091232553 0.095392853
0.068387471 -0.091161117 0.095322847
0.069072269 -0.091161117 0.095322847
0.069757059 -0.091161117 0.095322847
0.070465937 -0.091089696 0.095252857
0.071126647 -0.091161117 0.095322847
0.071811438 -0.091161117 0.095322847
0.072496235 -0.091161117 0.095322847
0.073155992 -0.091232553 0.095392853
0.073840559 -0.091232553 0.095392853
0.074525118 -0.091232553 0.095392853
0.067795292 -0.091360331 0.094557986
0.068481021 -0.091360331 0.094557986
0.069190376 -0.091289058 0.094487816
0.069900192 -0.091217816 0.094417647
0.070586391 -0.091217816 0.094417647
0.071272597 -0.091217816 0.094417647
0.071934238 -0.091289058 0.094487816
0.072620198 -0.091289058 0.094487816
0.073306166 -0.091289058 0.094487816
0.073966861 -0.091360331 0.094557986
0.074678101 -0.091289058 0.094487816
0.06788791 -0.091560841 0.093791768
0.068597965 -0.091489732 0.093721434
0.069332115 -0.091347545 0.093580768
0.070019484 -0.091347545 0.093580768
0.070755027 -0.091205388 0.09344013
0.071442872 -0.091205388 0.09344013
0.072081596 -0.091347545 0.093580768
0.072768964 -0.091347545 0.093580768
0.073456332 -0.091347545 0.093580768
0.074118435 -0.091418669 0.093651101
0.068119451 -0.091337115 0.092601255
0.068808459 -0.091337115 0.092601255
0.069544718 -0.091195285 0.092460245
0.070234194 -0.091195285 0.092460245
0.070947759 -0.091124356 0.092389777
0.071613155 -0.091195285 0.092460245
0.072302625 -0.091195285 0.092460245
0.072967306 -0.091266215 0.092530772
0.073656552 -0.091266215 0.092530772
0.074345797 -0.091266215 0.092530772
0.06830468 -0.091258273 0.091548771
0.06904234 -0.091116741 0.091407448
0.069780938 -0.09097521 0.091266125
0.070448905 -0.091045976 0.091336772
0.07114049 -0.091045976 0.091336772
0.071832076 -0.091045976 0.091336772
0.072499096 -0.091116741 0.091407448
0.073190451 -0.091116741 0.091407448
0.073831744 -0.091258273 0.091548771
0.074522629 -0.091258273 0.091548771
0.06846676 -0.09125264 0.090564445
0.069182672 -0.091182038 0.090493605
0.069969922 -0.090899646 0.090210304
0.070663616 -0.090899646 0.090210304
0.07135731 -0.090899646 0.090210304
0.072026677 -0.090970248 0.090281144
0.072720133 -0.090970248 0.090281144
0.073364004 -0.091111436 0.090422809
0.074031964 -0.091182038 0.090493605
0.074724726 -0.091182038 0.090493605
0.069369778 -0.091108456 0.089435846
0.070088036 -0.091038018 0.089364842
0.070806749 -0.090967596 0.089293852
0.071501851 -0.090967596 0.089293852
0.072172627 -0.091038018 0.089364842
0.07286749 -0.091038018 0.089364842
0.073562354 -0.091038018 0.089364842
0.074232183 -0.091108456 0.089435846
0.069603667 -0.090896994 0.088233069
0.070324257 -0.090826735 0.088161916
0.07102146 -0.090826735 0.088161916
0.07171867 -0.090826735 0.088161916
0.072391555 -0.090896994 0.088233069
0.073088527 -0.090896994 0.088233069
0.073760696 -0.090967268 0.088304237
0.07438235 -0.091178045 0.088517696
0.069884323 -0.090548664 0.08688435
0.070678599 -0.090268269 0.086599052
0.071307741 -0.090478584 0.086813033
0.072007753 -0.090478584 0.086813033
0.072659135 -0.090618744 0.086955667
0.073358677 -0.090618744 0.086955667
0.074008636 -0.09075895 0.087098315
0.070281923 -0.089854643 0.085174188
0.070962064 -0.089924589 0.085245684
0.07159403 -0.090134367 0.085460156
0.072200485 -0.090414107 0.085746124
0.072878055 -0.090484008 0.085817605
0.073579714 -0.090484008 0.085817605
0.074231781 -0.090623885 0.085960582
0.071198292 -0.089724377 0.084031671
0.07180874 -0.090003446 0.08431828
0.072417304 -0.090282515 0.084604919
0.073096983 -0.090352282 0.084676549
0.073776186 -0.090422049 0.084748223
0.069493242 -0.088970691 0.082239762
0.070203327 -0.088970691 0.082239762
0.070819855 -0.089249104 0.082527041
0.071458139 -0.089457914 0.082742527
0.072071165 -0.089736298 0.083029792
0.072778672 -0.089736298 0.083029792
0.073388882 -0.090014696 0.083317086
0.071670741 -0.089333951 0.081593692
0.072381295 -0.089333951 0.081593692
0.073067762 -0.089403361 0.08166568
0.073802404 -0.089333951 0.081593692
0 0 0 1 0 0 0 1 0 0 0 1 0 0 0 0 0 540 1 0 0
